ply
format ascii 1.0
element vertex 168
property float x
property float y
property float z
property int red
property int blue
property int green
end_header
-2.7716348 -1.6620219 8.017191 120 0 255
1.366604 -1.746373 11.564241 120 0 255
-3.111817 -1.970782 9.29417 120 0 255
-0.47931683 -2.0232732 10.965162 120 0 255
0.19641502 -1.2042947 5.825717 120 0 255
2.9434755 -1.7701305 10.671275 120 0 255
2.9821262 -1.7612749 10.6700115 120 0 255
2.9977775 -1.8057139 10.6810465 120 0 255
-3.1038918 -1.8996358 9.281583 120 0 255
-3.039744 -1.1055304 7.5279355 120 0 255
3.319637 -1.0564893 10.4011345 120 0 255
-2.9373543 -1.2913994 9.964696 120 0 255
-3.1528182 -0.50582516 7.1609354 120 0 255
-2.8660133 -1.3770068 9.911997 120 0 255
-2.700073 1.2624134 7.1175647 120 0 255
1.3453053 -1.6411805 11.571686 120 0 255
-2.820646 -2.1246736 8.265516 120 0 255
-2.8611915 -1.9354802 8.166122 120 0 255
-2.812751 -1.9368824 8.248623 120 0 255
-0.42030117 -2.378686 10.985283 120 0 255
-2.823925 -2.2216678 8.281606 120 0 255
-2.3659837 -2.032246 10.040502 120 0 255
-2.3621016 -1.8654764 10.007663 120 0 255
-2.338163 -1.84025 10.055797 120 0 255
-2.337032 -1.8026301 10.061703 120 0 255
-1.936939 -1.7406723 10.164575 120 0 255
-2.7783835 -1.6311606 9.459544 120 0 255
2.9479065 -1.7352506 10.660767 120 0 255
4.5591617 -0.33888528 2.3689651 120 0 255
3.0214999 -1.5755904 10.612109 120 0 255
2.9553654 -1.54848 10.570883 120 0 255
-0.6534647 -0.9639274 9.807899 120 0 255
4.1541505 -0.4524656 3.9154482 120 0 255
3.2345946 -1.1921031 10.43468 120 0 255
-2.054295 -0.9793726 9.41434 120 0 255
2.6097813 -1.1092124 11.034588 120 0 255
-2.3705273 1.074578 7.243084 120 0 255
0.8713842 0.16481404 6.4316893 120 0 255
-3.1456852 -0.48853323 7.1635084 120 0 255
-2.62155 1.3464106 7.121664 120 0 255
3.018612 1.1670734 9.52903 120 0 255
-2.1577 0.5257921 10.097885 120 0 255
-2.5895317 0.9081726 7.2312937 120 0 255
3.1897094 1.273833 9.601193 120 0 255
2.864724 1.4715638 9.4199095 120 0 255
3.3718941 1.6362534 9.616037 120 0 255
-2.6499307 1.6549563 7.0403056 120 0 255
4.530659 0.36269984 2.612402 120 0 255
-0.5585107 -2.6924338 11.027549 120 0 255
-2.3799136 -2.0782342 10.049853 120 0 255
-2.8623357 -1.9437824 8.170189 120 0 255
-0.4235493 -2.3866615 10.991368 120 0 255
-2.8575702 -2.1655526 8.240313 120 0 255
-2.3527832 -1.9194884 10.033603 120 0 255
2.0638988 -1.2091279 11.42368 120 0 255
-3.1364877 -0.504723 7.189734 120 0 255
2.0748804 -0.86181843 11.309137 120 0 255
-2.3783164 -1.8017324 9.972371 120 0 255
-2.330575 -1.8039445 10.060064 120 0 255
-1.9942892 -1.7680697 10.141733 120 0 255
-2.2466063 -1.7417625 10.011965 120 0 255
-2.0311396 -1.7416304 10.130713 120 0 255
3.0188546 -1.5831563 10.620109 120 0 255
2.9464889 -1.5911995 10.6028385 120 0 255
3.0349612 -1.4871635 10.595527 120 0 255
0.17483637 -1.231751 10.730903 120 0 255
3.281728 -1.0439879 10.374674 120 0 255
-2.0997698 -0.9823188 9.413616 120 0 255
1.4781008 -0.7306575 10.857695 120 0 255
4.3672695 -0.19235846 2.641494 120 0 255
0.90520424 0.20571117 10.09429 120 0 255
-3.0168724 -0.055047173 7.1260757 120 0 255
-2.9007366 0.9918484 6.9908023 120 0 255
-3.1386585 -0.5078741 7.177603 120 0 255
-3.1542797 -0.46605742 7.1456857 120 0 255
2.2296157 1.0555595 10.400232 120 0 255
3.3623571 1.1244016 9.708746 120 0 255
3.3636372 1.2012876 9.693572 120 0 255
-0.64147705 -1.2129716 10.03948 120 0 255
3.5117886 1.255196 9.683856 120 0 255
2.8610907 1.2412398 9.457372 120 0 255
2.86192 1.3413919 9.441543 120 0 255
3.077969 1.376264 9.5028 120 0 255
3.1986423 1.3126704 9.574909 120 0 255
2.862426 1.476314 9.416565 120 0 255
3.5128987 1.5176916 9.64189 120 0 255
3.0779634 1.510275 9.481839 120 0 255
2.8640509 1.5089852 9.40472 120 0 255
3.3665583 1.634059 9.624252 120 0 255
-2.2744024 1.6363316 8.518033 120 0 255
3.079517 1.6162679 9.464928 120 0 255
3.8287861 0.9407236 9.841514 120 0 255
2.8990743 1.6414226 9.371783 120 0 255
1.3214658 1.071667 9.030083 120 0 255
-2.8320153 -2.0076838 8.2293415 120 0 255
-2.861594 -1.9570101 8.170025 120 0 255
-2.3799696 -1.81505 9.9691725 120 0 255
3.8836577 -0.87281406 5.780323 120 0 255
-1.8746127 -1.7244374 10.196912 120 0 255
-1.3573022 -1.6943259 10.41061 120 0 255
2.949351 -1.60051 10.572602 120 0 255
3.0191894 -1.5965836 10.619947 120 0 255
3.004718 -1.5481918 10.636685 120 0 255
-0.6580345 -1.4102424 10.214618 120 0 255
-3.1525385 -0.40473488 7.1393137 120 0 255
-3.1459475 -0.43403894 7.155968 120 0 255
-2.158457 0.89511895 7.3460736 120 0 255
-3.02231 0.09463449 7.0973024 120 0 255
-1.3978224 0.45929474 9.057429 120 0 255
-3.1516006 -0.549322 7.137186 120 0 255
-2.3920825 0.61510557 7.344437 120 0 255
-2.1927056 -0.3317842 7.5723534 120 0 255
2.9382246 0.10452019 9.693169 120 0 255
2.8729634 1.0201602 9.481125 120 0 255
3.3538952 1.1184274 9.713119 120 0 255
-1.4043835 0.18836126 9.101861 120 0 255
-2.5924845 1.0939114 7.2185283 120 0 255
2.857323 1.3600157 9.43271 120 0 255
3.082895 1.3639841 9.506953 120 0 255
-2.1891687 -0.19451536 7.542985 120 0 255
-2.601066 0.9206524 7.2537785 120 0 255
-2.1833246 0.6286011 7.4019804 120 0 255
3.3577964 1.5723749 9.639887 120 0 255
-2.627974 1.3317751 7.110455 120 0 255
3.5535178 1.6451174 9.599722 120 0 255
3.0381167 1.6420586 9.468942 120 0 255
2.907065 1.6337557 9.37201 120 0 255
-2.3619316 -1.8780346 10.0247965 120 0 255
-2.303958 -1.8183832 10.061737 120 0 255
-2.3440177 -1.7519668 9.985681 120 0 255
-0.72652 -1.8663906 10.8529415 120 0 255
4.317947 0.65553427 9.832638 120 0 255
-2.389983 0.6234937 7.35659 120 0 255
3.693183 -0.37329033 10.075606 120 0 255
-2.9134307 0.7720579 7.0403495 120 0 255
-2.4316683 -0.064323656 8.680875 120 0 255
-2.5198991 0.30460936 7.311824 120 0 255
-3.1556604 -0.47983283 7.142943 120 0 255
3.2805958 1.3028731 9.356739 120 0 255
3.2941394 1.3767372 9.856693 120 0 255
2.878504 1.4242902 9.405774 120 0 255
3.3492415 1.4619318 9.534713 120 0 255
3.3759446 1.5791142 9.423326 120 0 255
3.229716 1.6190581 9.595229 120 0 255
2.9153943 1.6274958 9.374893 120 0 255
3.028568 1.6371319 9.469044 120 0 255
3.3562667 1.627696 9.633953 120 0 255
-1.0686052 2.0067601 8.919336 120 0 255
-0.4180371 -1.9338816 10.828376 120 0 255
-2.3203404 -1.7332672 9.980268 120 0 255
-2.739464 -1.0666248 7.426781 120 0 255
3.262305 -1.062032 10.388525 120 0 255
-2.1941507 0.7647826 7.3806853 120 0 255
-3.1733606 -0.56831044 7.173882 120 0 255
3.6419108 -0.4116735 10.159338 120 0 255
-0.579301 -2.4219515 10.8737 120 0 255
-2.9505439 -1.8757893 8.072052 120 0 255
-0.38596556 -2.063005 10.982396 120 0 255
0.23127602 -1.5187726 10.909552 120 0 255
-2.9451926 -1.528649 10.10006 120 0 255
4.5271287 -0.31064597 3.4870956 120 0 255
-2.2100606 -0.2579248 7.476699 120 0 255
2.9296603 1.5831391 9.37151 120 0 255
-1.1101749 -1.519832 10.120642 120 0 255
0.029222617 -1.5799776 11.038033 120 0 255
3.2345724 -0.97305924 10.353105 120 0 255
-2.2797828 1.2874557 7.2806377 120 0 255
-0.42031392 -2.0998647 11.08868 120 0 255
