ply
format ascii 1.0
element vertex 354
property float x
property float y
property float z
property int red
property int blue
property int green
end_header
-7.404811 2.4053037 8.7372465 120 0 255
-7.472593 0.9657732 9.089269 120 0 255
-8.515258 0.4013563 10.485217 120 0 255
-7.4562135 1.0893552 9.104957 120 0 255
-7.7969484 -0.46658888 9.615751 120 0 255
-7.468614 1.0071069 9.13081 120 0 255
-7.468614 1.0071069 9.13081 120 0 255
-7.501602 0.81176853 9.223418 120 0 255
-7.483697 0.87810355 9.195507 120 0 255
-7.5367303 0.5963269 9.30156 120 0 255
-7.712905 -0.16615427 9.606472 120 0 255
-7.712905 -0.16615427 9.606472 120 0 255
-7.3244166 2.3258631 8.97254 120 0 255
-7.8208213 -0.52024037 9.807209 120 0 255
-7.330124 1.8395511 9.07944 120 0 255
-7.408279 0.9328875 9.318642 120 0 255
-8.192875 0.68493813 10.396628 120 0 255
-7.628726 -0.08057215 9.684557 120 0 255
-7.624935 -0.14719541 9.758341 120 0 255
-7.4667144 0.50302935 9.517838 120 0 255
-7.4667144 0.50302935 9.517838 120 0 255
-7.5229144 0.25020128 9.608329 120 0 255
-7.5229144 0.25020128 9.608329 120 0 255
-7.5229144 0.25020128 9.608329 120 0 255
-7.8565927 -0.70486575 10.129023 120 0 255
-7.549799 0.09469845 9.6835575 120 0 255
-7.843012 -0.7091291 10.151469 120 0 255
-7.2909904 1.5099956 9.274367 120 0 255
-7.4044375 0.57334435 9.59903 120 0 255
-7.2762346 1.2577245 9.42521 120 0 255
-7.28848 1.0736655 9.485324 120 0 255
-7.2298937 1.4944689 9.40632 120 0 255
-7.3412247 0.69830626 9.619501 120 0 255
-7.543514 -0.23440821 9.989825 120 0 255
-7.479779 -0.062051978 9.96434 120 0 255
-7.143593 2.4012692 9.478807 120 0 255
-7.245685 0.76373035 9.745888 120 0 255
-7.2044387 1.3949386 9.66278 120 0 255
-7.199438 1.4555287 9.660091 120 0 255
-7.1516094 1.9927685 9.566403 120 0 255
-7.4269824 -0.1512552 10.105495 120 0 255
-7.185174 1.3362191 9.715012 120 0 255
-7.1301007 2.0282307 9.603032 120 0 255
-7.1201944 1.9201381 9.61437 120 0 255
-7.133189 1.4552941 9.764441 120 0 255
-7.084043 2.0464573 9.665601 120 0 255
-7.0575414 2.0218928 9.716675 120 0 255
-7.123209 0.83841896 9.893996 120 0 255
-7.0877905 1.3552411 9.8610735 120 0 255
-7.0877905 1.3552411 9.8610735 120 0 255
-6.9773054 2.1288843 9.69978 120 0 255
-7.2387924 0.12609985 10.292489 120 0 255
-6.9839163 1.9183799 9.836943 120 0 255
-6.9147286 2.26451 9.79277 120 0 255
-6.986987 1.3272855 9.981852 120 0 255
-7.0620804 0.7207807 10.1514635 120 0 255
-6.943651 1.752614 9.903075 120 0 255
-8.143867 -2.2149749 12.158225 120 0 255
-8.154296 -2.2355661 12.176403 120 0 255
-7.00266 0.95986503 10.120146 120 0 255
-7.7075477 0.57449037 11.256384 120 0 255
-6.9717083 1.1660756 10.078442 120 0 255
-7.046568 0.64695543 10.23964 120 0 255
-8.029659 -1.999653 12.030417 120 0 255
-8.199129 -2.4614046 12.334922 120 0 255
-6.997521 1.0408306 10.14421 120 0 255
-8.244111 -2.6925428 12.484036 120 0 255
-7.022207 0.7529264 10.263201 120 0 255
-7.1491165 -0.04016782 10.535785 120 0 255
-19.419327 -5.91779 33.87885 120 0 255
-7.0725193 0.3096337 10.404857 120 0 255
-7.0128007 0.691468 10.3067665 120 0 255
-6.8626914 1.791055 10.0518055 120 0 255
-6.850858 1.8373346 10.0349655 120 0 255
-6.9012733 1.28251 10.195965 120 0 255
-6.949091 0.75176954 10.34791 120 0 255
-8.744411 -2.295316 13.815663 120 0 255
-8.729702 -2.2276664 13.815099 120 0 255
-6.809493 1.8809558 10.125223 120 0 255
-6.823782 1.5307511 10.216174 120 0 255
-8.691354 -2.206229 13.867357 120 0 255
-6.8864055 0.7675825 10.413346 120 0 255
-8.665488 -2.1357431 13.852285 120 0 255
-6.833911 1.1971294 10.316063 120 0 255
-8.645144 -2.2219043 13.960963 120 0 255
-8.645144 -2.2219043 13.960963 120 0 255
-6.7953267 1.3774747 10.328202 120 0 255
-6.905124 0.4743939 10.574219 120 0 255
-6.982171 -0.033344936 10.753955 120 0 255
-8.634836 -2.1551857 14.0058155 120 0 255
-7.001623 -0.15855475 10.828844 120 0 255
-6.7714963 0.77187055 10.462113 120 0 255
-7.3285894 2.6182842 12.186241 120 0 255
-7.387864 1.156205 12.509469 120 0 255
-7.303671 2.0366871 12.322573 120 0 255
-7.303671 2.0366871 12.322573 120 0 255
-8.279704 -2.0578818 14.630591 120 0 255
-7.4407463 0.29882216 12.840341 120 0 255
-7.4193726 0.23848188 12.872155 120 0 255
-7.4193726 0.23848188 12.872155 120 0 255
-7.447835 -0.6485558 13.371449 120 0 255
-7.275018 0.31218356 13.02836 120 0 255
-7.39398 -0.73244226 13.477564 120 0 255
-7.393151 -0.717069 13.497405 120 0 255
-7.32834 -0.64389914 13.548832 120 0 255
-7.266742 -0.6562691 13.58965 120 0 255
-7.0122375 1.0364931 13.171538 120 0 255
-9.278296 2.2441957 18.649214 120 0 255
-7.068474 0.23638596 13.458365 120 0 255
-7.068474 0.23638596 13.458365 120 0 255
-7.9576817 -2.6119204 15.997575 120 0 255
-6.897398 0.95961934 13.359888 120 0 255
-6.9158306 0.49007985 13.529022 120 0 255
-7.3202167 -1.0031317 14.603607 120 0 255
-6.9813504 -0.12073595 13.791942 120 0 255
-7.722952 -1.9868737 15.763956 120 0 255
-7.6763663 -2.0442002 15.913206 120 0 255
-6.68465 3.154793 13.119656 120 0 255
-6.7337246 0.952415 13.77764 120 0 255
-8.973026 1.1775962 19.77692 120 0 255
-7.519763 -2.0521207 16.108276 120 0 255
-6.716071 0.71637255 13.868192 120 0 255
-6.809649 -0.7421156 14.256809 120 0 255
-6.803566 -0.6697506 14.2726755 120 0 255
-6.6791058 0.8107726 13.909544 120 0 255
-6.652948 0.500508 13.912333 120 0 255
-7.3108544 -2.3531456 15.905663 120 0 255
-6.4454026 1.3552519 13.886885 120 0 255
-6.4454026 1.3552519 13.886885 120 0 255
-6.4322042 1.250271 13.93395 120 0 255
-6.4023647 1.58997 13.859026 120 0 255
-3.9581585 0.44727322 6.7953324 120 0 255
-6.381726 1.8050554 13.828382 120 0 255
-6.3783894 1.6770741 13.8829775 120 0 255
-6.7234216 -0.8170005 15.212915 120 0 255
-6.705376 -0.8495653 15.305615 120 0 255
-6.73039 -1.0247068 15.384985 120 0 255
-6.7010813 -1.0425646 15.373952 120 0 255
-6.2401013 2.7864306 13.8083725 120 0 255
-6.2730093 1.6967878 14.0018015 120 0 255
-6.346965 0.2991817 14.411193 120 0 255
-6.324343 0.35757864 14.341816 120 0 255
-6.290007 1.0290257 14.210415 120 0 255
-6.618813 -0.8883183 15.433551 120 0 255
-6.5853066 -0.8563571 15.441368 120 0 255
-6.5853066 -0.8563571 15.441368 120 0 255
-6.1223416 1.5219448 14.208283 120 0 255
-6.054108 1.5360837 14.255231 120 0 255
-6.1058917 0.552264 14.561066 120 0 255
-6.111206 0.8931111 14.661749 120 0 255
-6.0917416 0.21887222 14.686313 120 0 255
-6.133505 -0.63535184 15.077908 120 0 255
-6.1019506 -0.84672385 16.00858 120 0 255
-6.152358 -1.593476 16.928738 120 0 255
-6.1564035 -1.6905446 17.001564 120 0 255
-6.1308503 -1.5342251 16.90892 120 0 255
-6.1215596 -1.6147637 16.951998 120 0 255
-6.174516 -2.6502523 17.29511 120 0 255
-6.134962 -2.4312844 17.289808 120 0 255
-5.6711226 -1.4225008 16.623873 120 0 255
-5.30674 0.037357572 15.051482 120 0 255
-5.604643 -2.0761452 17.565922 120 0 255
-5.0320063 1.9442538 14.861338 120 0 255
-5.1001153 -0.30698103 15.593096 120 0 255
-5.0858755 -0.2668205 15.591542 120 0 255
-5.658898 -3.2568474 18.55086 120 0 255
-5.698806 -3.8952048 18.99668 120 0 255
-5.6779394 -3.84749 18.997416 120 0 255
-5.6779394 -3.84749 18.997416 120 0 255
-5.695444 -4.136822 19.097485 120 0 255
-5.657976 -3.7855191 19.000397 120 0 255
-4.889933 0.056288492 15.52805 120 0 255
-4.9486337 -0.92491245 15.955612 120 0 255
-4.9884605 -0.7164112 16.32738 120 0 255
-4.803794 2.3270183 15.276281 120 0 255
-4.879097 -0.52611965 16.063263 120 0 255
-4.818632 0.87811875 15.658617 120 0 255
-4.638676 2.125639 14.738807 120 0 255
-4.782858 0.23811394 15.655776 120 0 255
-4.7032614 1.4743317 15.220608 120 0 255
-4.754578 0.52084213 15.654503 120 0 255
-4.7339783 0.99987143 15.758515 120 0 255
-4.694701 0.71803004 15.746185 120 0 255
-4.6779423 -0.79871833 16.187447 120 0 255
-4.636385 -0.6332381 16.214115 120 0 255
-4.573884 0.7005711 15.826625 120 0 255
-4.512753 0.669654 15.907165 120 0 255
-28.377972 -18.901993 160.49706 120 0 255
-4.0794754 3.5030425 13.563662 120 0 255
-4.64394 -2.0543907 18.666561 120 0 255
-4.6905484 -2.8450909 19.038345 120 0 255
-4.6317205 -1.7663099 18.589453 120 0 255
-21.738804 -19.208508 141.7346 120 0 255
-4.1490955 1.7401863 15.883033 120 0 255
-4.119665 0.43485653 16.392763 120 0 255
-4.4594035 -2.1225412 19.388773 120 0 255
-4.434064 -2.097429 19.372911 120 0 255
-4.1952 -0.83107173 18.124214 120 0 255
-3.6618822 -0.5520613 17.750496 120 0 255
-3.7669592 -2.0920405 20.03687 120 0 255
-3.5396266 -0.8078927 18.775537 120 0 255
-3.615867 -2.0971935 20.203037 120 0 255
-3.3594623 0.5777462 17.67976 120 0 255
-3.3437972 0.84973526 17.66731 120 0 255
-3.376134 -0.78071195 18.916533 120 0 255
-3.2888882 2.3326507 17.415163 120 0 255
-3.3529315 -0.7621356 18.926712 120 0 255
-3.2820957 0.4651712 17.855606 120 0 255
-3.323228 -0.7099896 18.913368 120 0 255
-3.2565062 2.450231 17.437248 120 0 255
-3.1894107 2.2380693 17.494402 120 0 255
-3.077642 0.14092818 18.191452 120 0 255
-3.0697854 1.1557459 17.924932 120 0 255
-3.0584686 1.562197 17.823378 120 0 255
-3.0511377 2.3987124 17.660872 120 0 255
-3.0334306 2.4807396 17.655933 120 0 255
-3.0299468 2.2782602 17.669577 120 0 255
-2.9623792 0.021283269 18.319996 120 0 255
-2.9041374 0.3363098 18.167862 120 0 255
-6.83217 16.334356 105.81757 120 0 255
-6.83217 16.334356 105.81757 120 0 255
-2.6812701 -0.6314206 18.724264 120 0 255
-2.6986744 -2.3859031 21.215792 120 0 255
-2.683115 -2.0610602 21.028517 120 0 255
-2.6771755 -2.239439 21.149921 120 0 255
-2.672554 -2.3034263 21.207691 120 0 255
-2.6280987 -2.2623377 21.228312 120 0 255
-2.0553105 0.62429684 4.4083934 120 0 255
-2.5863872 4.1210694 17.877754 120 0 255
-2.5144863 -0.4611699 18.855026 120 0 255
-2.5144863 -0.4611699 18.855026 120 0 255
-2.5138345 0.0043116203 18.803644 120 0 255
-2.3787942 -0.76121354 19.883625 120 0 255
-2.353412 0.51116717 18.785007 120 0 255
-2.325635 1.1701221 18.653856 120 0 255
-2.32804 1.8394516 18.53472 120 0 255
-2.3033326 0.68269384 18.752485 120 0 255
-2.2816095 1.9288392 18.587404 120 0 255
-2.259688 3.8202724 18.23843 120 0 255
-2.1510317 -1.3525217 20.723333 120 0 255
-2.1379702 1.2820745 18.844418 120 0 255
-2.1497903 2.3798635 18.571474 120 0 255
-2.1461806 2.4852695 18.62483 120 0 255
-2.1100047 0.34071255 18.922064 120 0 255
-2.1010783 3.7809412 18.400251 120 0 255
-2.0086846 0.17328608 19.230112 120 0 255
-2.0272691 2.4380426 18.68428 120 0 255
-2.0272691 2.4380426 18.68428 120 0 255
-2.0140157 3.3474221 18.579786 120 0 255
-2.0131037 3.568179 18.548079 120 0 255
-1.8947792 0.50296074 5.4662886 120 0 255
-1.4275491 4.3882675 40.425495 120 0 255
-1.5227096 6.6409955 43.164112 120 0 255
-1.5824593 -2.1970484 21.56205 120 0 255
-1.5577233 -2.4964385 21.641945 120 0 255
-1.5659274 -2.020583 21.54284 120 0 255
-1.0791757 4.002229 41.526237 120 0 255
-1.5281178 -1.7195619 21.48977 120 0 255
-1.0531827 7.5368395 43.617764 120 0 255
-1.418477 -1.4215783 21.515627 120 0 255
-1.4096528 -1.3587532 21.513458 120 0 255
-1.2755808 3.8265269 19.20955 120 0 255
-0.76393807 -2.498125 22.32577 120 0 255
-0.3483589 -0.021915384 18.154795 120 0 255
-0.21713412 -1.1154737 19.135513 120 0 255
-0.33227468 0.65798825 18.119738 120 0 255
-0.30455807 0.9514335 18.087181 120 0 255
-0.27418238 0.23817088 18.249514 120 0 255
-0.28351083 1.2111876 18.055712 120 0 255
-0.28075036 2.2952585 17.849222 120 0 255
0.053909406 -2.7066078 20.483263 120 0 255
-0.2443793 1.4382198 18.043701 120 0 255
-0.24900997 1.5913693 18.004465 120 0 255
-0.24900997 1.5913693 18.004465 120 0 255
0.09475155 -3.0190873 20.629238 120 0 255
-0.27419853 3.0571985 17.734245 120 0 255
-0.27075693 3.303146 17.691933 120 0 255
-0.1480549 0.6973958 18.310116 120 0 255
-0.16590875 1.5754731 18.110626 120 0 255
-0.21582659 2.9270582 17.791128 120 0 255
-0.20349751 3.1827185 17.75902 120 0 255
-0.07827694 0.26105267 18.46682 120 0 255
0.19641435 -2.4249964 20.490799 120 0 255
-0.048609175 0.26190418 18.487135 120 0 255
-0.08232343 1.6025001 18.162 120 0 255
-0.086924985 2.4870334 18.002142 120 0 255
-0.06894639 2.4487824 18.029032 120 0 255
0.057412162 0.41832453 18.562263 120 0 255
-0.011157649 2.451668 18.100063 120 0 255
0.06983184 0.60189325 18.521921 120 0 255
0.053238723 1.5838957 18.34122 120 0 255
0.073460355 1.1742586 18.431412 120 0 255
0.109101474 -0.055793613 18.54706 120 0 255
0.084339075 1.1819016 18.447268 120 0 255
0.084339075 1.1819016 18.447268 120 0 255
0.13956366 0.15457378 18.654215 120 0 255
0.20320004 -0.2318996 18.86076 120 0 255
0.17383324 0.4534356 18.64023 120 0 255
0.20351641 0.81828946 18.621233 120 0 255
0.15612133 2.5954835 18.215708 120 0 255
0.16273192 2.8537621 18.162672 120 0 255
0.46697158 0.9950747 18.950502 120 0 255
0.3815582 3.1678252 18.353838 120 0 255
0.7075635 -1.4577703 20.250544 120 0 255
0.4479406 2.4015532 18.525415 120 0 255
0.558406 1.6079268 18.761662 120 0 255
0.55039907 2.7681487 18.64742 120 0 255
0.55039907 2.7681487 18.64742 120 0 255
0.780388 -0.37687466 19.398823 120 0 255
0.76014864 0.6780772 19.158836 120 0 255
0.6767837 2.921788 18.76497 120 0 255
0.7053225 2.4282718 18.760574 120 0 255
0.9812007 -1.0242242 20.163136 120 0 255
1.0285186 1.0035789 19.336231 120 0 255
1.0285186 1.0035789 19.336231 120 0 255
0.98627156 2.001762 19.096024 120 0 255
1.0343593 1.2612867 19.292908 120 0 255
1.0594308 0.8883268 19.383446 120 0 255
1.0559931 1.1545252 19.328436 120 0 255
1.0828862 0.96123874 19.408611 120 0 255
1.0938298 1.0032649 19.404102 120 0 255
1.1038802 0.98085237 19.412016 120 0 255
1.0078244 2.9834502 18.962978 120 0 255
1.0525072 2.5314586 19.08652 120 0 255
1.0687478 2.5144763 19.107197 120 0 255
1.0788425 2.8587713 19.057604 120 0 255
1.0835841 3.7766616 18.8711 120 0 255
1.3467915 -0.38463476 20.035727 120 0 255
1.234286 2.2814133 19.280382 120 0 255
1.3572382 0.80801874 19.658773 120 0 255
1.4304464 0.6612321 19.740763 120 0 255
1.3872877 1.5871376 19.549446 120 0 255
1.3851249 1.6797048 19.533981 120 0 255
1.3593736 2.1260853 19.404367 120 0 255
1.4820092 1.0671214 19.738657 120 0 255
1.614257 -0.11919455 20.076967 120 0 255
1.6213105 -0.15312529 20.0993 120 0 255
1.6365604 -0.11058592 20.094849 120 0 255
0.5279178 3.6470635 14.273732 120 0 255
0.5279178 3.6470635 14.273732 120 0 255
1.6454537 0.39145815 20.003212 120 0 255
1.655621 2.1225262 19.715454 120 0 255
1.691331 1.4237475 19.913631 120 0 255
1.702041 2.2293158 19.704966 120 0 255
1.702041 2.2293158 19.704966 120 0 255
1.7226286 2.2554915 19.693779 120 0 255
1.8328764 -0.012268259 20.076939 120 0 255
1.8370274 0.01438498 20.067589 120 0 255
2.1581764 4.8068604 20.938307 120 0 255
2.3369346 4.833829 21.101221 120 0 255
2.5382473 5.082878 21.41818 120 0 255
-0.6226277 1.7447294 6.466928 120 0 255
2.7334757 1.4728098 20.289581 120 0 255
3.0883415 4.8884616 19.748354 120 0 255
