ply
format ascii 1.0
element vertex 1184
property float x
property float y
property float z
property int red
property int blue
property int green
end_header
-15.779433 3.3451319 25.37279 120 0 255
-15.8556385 1.4090303 25.612486 120 0 255
-15.867437 1.684173 25.728745 120 0 255
-16.080828 -1.8085594 26.275982 120 0 255
-16.317753 -2.2614422 26.787548 120 0 255
-15.657973 4.800218 25.338291 120 0 255
-15.845064 1.8860722 25.808865 120 0 255
-15.679517 3.8299477 25.458086 120 0 255
-16.060732 -0.84898096 26.371828 120 0 255
-15.936096 0.12133656 26.159883 120 0 255
-15.936096 0.12133656 26.159883 120 0 255
-15.983551 -0.6984536 26.280256 120 0 255
-15.52134 5.1740093 25.323162 120 0 255
-15.877708 -0.022393906 26.238575 120 0 255
-15.877708 -0.022393906 26.238575 120 0 255
-15.877708 -0.022393906 26.238575 120 0 255
-15.821268 0.67426187 26.122433 120 0 255
-15.821268 0.67426187 26.122433 120 0 255
-16.337595 -2.6321387 27.188322 120 0 255
-15.639967 2.837291 25.716074 120 0 255
-16.273499 -2.41406 27.084236 120 0 255
-15.508653 3.3744316 25.477116 120 0 255
-16.271357 -2.5755327 27.111408 120 0 255
-15.516674 5.6835365 25.41377 120 0 255
-15.899892 -0.45407224 26.386868 120 0 255
-15.542809 2.7907748 25.7472 120 0 255
-15.457198 3.6241572 25.610413 120 0 255
-15.487699 3.4747276 25.706028 120 0 255
-15.487699 3.4747276 25.706028 120 0 255
-15.806331 -0.41172132 26.526966 120 0 255
-15.436689 3.2906358 25.75137 120 0 255
-15.440974 3.2599568 25.828783 120 0 255
-15.404867 3.8577075 25.779598 120 0 255
-15.708239 -0.22124684 26.520355 120 0 255
-15.708239 -0.22124684 26.520355 120 0 255
-15.340983 3.6440895 25.929567 120 0 255
-16.30305 -3.4397268 28.01998 120 0 255
-15.375264 2.7749045 26.054688 120 0 255
-15.570713 0.15594721 26.562284 120 0 255
-16.212608 -3.4206827 28.064926 120 0 255
-15.2200575 4.3598824 25.881119 120 0 255
-15.2200575 4.3598824 25.881119 120 0 255
-15.4098215 1.206261 26.386883 120 0 255
-15.679196 -1.3626207 27.023043 120 0 255
-15.240378 3.8999128 25.972029 120 0 255
-15.261627 3.4353576 26.057085 120 0 255
-15.261627 3.4353576 26.057085 120 0 255
-15.504142 -0.0051444974 26.687368 120 0 255
-15.552822 -0.41569895 26.801966 120 0 255
-15.264904 2.9791002 26.120453 120 0 255
-15.380361 1.2030765 26.46555 120 0 255
-15.2727165 2.0147693 26.23178 120 0 255
-15.177232 4.137472 25.967152 120 0 255
-15.3688135 1.0774263 26.499317 120 0 255
-15.31107 1.7497948 26.37184 120 0 255
-15.31107 1.7497948 26.37184 120 0 255
-15.441413 -0.43020657 26.784784 120 0 255
-15.441413 -0.43020657 26.784784 120 0 255
-15.500833 -0.8892845 26.952566 120 0 255
-15.433618 -0.066277556 26.793934 120 0 255
-15.433618 -0.066277556 26.793934 120 0 255
-15.169403 1.9887644 26.333767 120 0 255
-15.125054 2.0827718 26.327803 120 0 255
-15.442521 -0.8739338 27.099771 120 0 255
-15.577166 -2.194382 27.487568 120 0 255
-15.516463 -2.1741786 27.525463 120 0 255
-15.100218 3.9043636 26.49859 120 0 255
-15.02521 3.681644 26.390247 120 0 255
-15.074436 1.376703 26.703176 120 0 255
-14.996717 4.0626655 26.426943 120 0 255
-15.038036 3.123864 26.604073 120 0 255
-14.891633 4.776968 26.390625 120 0 255
-15.49646 -2.509302 27.933882 120 0 255
-15.453211 -3.3853292 27.894176 120 0 255
-14.933987 3.9164026 26.566 120 0 255
-15.477509 -3.387283 27.956614 120 0 255
-14.911905 2.6194649 26.652782 120 0 255
-14.935925 2.9517171 26.690874 120 0 255
-14.935925 2.9517171 26.690874 120 0 255
-15.413848 -3.2676642 27.895472 120 0 255
-14.6918955 5.696959 26.121832 120 0 255
-14.815388 4.865781 26.490726 120 0 255
-16.231714 -5.046828 29.721289 120 0 255
-14.619983 6.1090765 26.164629 120 0 255
-15.309137 -3.3085694 28.07409 120 0 255
-15.006661 -1.9767798 27.50095 120 0 255
-15.000606 -0.17156614 27.55145 120 0 255
-14.757311 1.2239586 27.062147 120 0 255
-14.9527 0.004953315 27.526245 120 0 255
-14.836982 -0.8698979 27.503471 120 0 255
-14.6690035 1.574294 27.10229 120 0 255
-14.8942175 -0.99191093 27.736069 120 0 255
-14.545503 4.8411894 26.758266 120 0 255
-14.663029 3.5608313 27.098856 120 0 255
-15.053572 -3.595544 28.430721 120 0 255
-14.354431 5.069396 26.71602 120 0 255
-14.699488 -0.38631964 27.784115 120 0 255
-14.276782 5.1269827 26.68681 120 0 255
-15.9503975 -5.6098084 30.634863 120 0 255
-16.189146 -6.6153126 31.27822 120 0 255
-16.114468 -6.393008 31.122175 120 0 255
-15.892526 -5.5838833 30.632147 120 0 255
-15.892526 -5.5838833 30.632147 120 0 255
-14.408476 1.5844933 27.271656 120 0 255
-16.129824 -6.477327 31.19294 120 0 255
-16.12682 -6.5061297 31.266653 120 0 255
-16.051949 -6.166871 31.10852 120 0 255
-16.051949 -6.166871 31.10852 120 0 255
-15.936868 -5.949976 30.96657 120 0 255
-16.116274 -6.7568913 31.387169 120 0 255
-14.289372 2.1833396 27.259905 120 0 255
-16.121223 -6.8990207 31.495989 120 0 255
-14.748178 -3.281792 28.495943 120 0 255
-14.741678 -2.9869425 28.496586 120 0 255
-16.090708 -6.8450522 31.507874 120 0 255
-16.108154 -6.9863887 31.57665 120 0 255
-14.3180065 1.2272645 27.595285 120 0 255
-16.163382 -7.7527056 31.88478 120 0 255
-15.661983 -5.589612 30.770798 120 0 255
-14.392369 -0.17558274 27.923233 120 0 255
-14.392369 -0.17558274 27.923233 120 0 255
-14.0850935 4.5415063 27.049877 120 0 255
-14.289724 1.000518 27.678555 120 0 255
-14.115861 4.0737586 27.158115 120 0 255
-14.115861 4.0737586 27.158115 120 0 255
-14.086471 4.877338 27.05684 120 0 255
-14.088407 4.400696 27.095411 120 0 255
-14.2113905 2.0457654 27.479647 120 0 255
-14.309545 0.5350246 27.781189 120 0 255
-14.150969 3.1443503 27.32773 120 0 255
-14.127295 3.7675223 27.253744 120 0 255
-14.145555 3.297362 27.357946 120 0 255
-14.145555 3.297362 27.357946 120 0 255
-14.136612 2.8419755 27.396116 120 0 255
-14.715612 -0.10574635 28.733213 120 0 255
-14.172442 1.8790519 27.55944 120 0 255
-14.172442 1.8790519 27.55944 120 0 255
-14.3857565 -0.84791076 28.14584 120 0 255
-14.219629 1.2148528 27.709806 120 0 255
-14.284615 -0.15145166 28.011679 120 0 255
-14.128195 2.0935633 27.5804 120 0 255
-14.067403 2.0824618 27.4731 120 0 255
-14.007088 4.3022013 27.234179 120 0 255
-14.011786 3.8372087 27.286955 120 0 255
-14.278832 -0.3695245 28.13451 120 0 255
-14.278832 -0.3695245 28.13451 120 0 255
-14.036013 2.9525268 27.459333 120 0 255
-16.22206 -6.6042833 32.6081 120 0 255
-14.153872 1.3262956 27.810074 120 0 255
-14.172323 0.8321655 27.882956 120 0 255
-14.325793 -0.85286146 28.328312 120 0 255
-14.3962145 -2.0781634 28.590464 120 0 255
-14.228478 -1.6674417 28.287428 120 0 255
-13.948805 3.2577372 27.480072 120 0 255
-13.937718 2.3443747 27.557186 120 0 255
-13.956445 2.4293973 27.59982 120 0 255
-13.956445 2.4293973 27.59982 120 0 255
-14.374621 -2.2578528 28.733473 120 0 255
-14.1228075 1.9843943 28.169184 120 0 255
-17.053957 -6.4941583 35.179966 120 0 255
-17.053957 -6.4941583 35.179966 120 0 255
-13.798266 4.154325 27.483887 120 0 255
-13.798266 4.154325 27.483887 120 0 255
-13.82366 3.182089 27.650797 120 0 255
-13.875622 2.754738 27.811575 120 0 255
-13.874061 1.2907656 27.99553 120 0 255
-16.98204 -6.1523495 35.3078 120 0 255
-13.964974 -0.10671951 28.339092 120 0 255
-13.964974 -0.10671951 28.339092 120 0 255
-17.000845 -6.5708113 35.45512 120 0 255
-13.981536 -1.9526159 28.497837 120 0 255
-13.692151 4.2349386 27.571018 120 0 255
-13.964786 -0.34923935 28.420956 120 0 255
-13.702102 3.5767078 27.679424 120 0 255
-17.001389 -6.607364 35.591976 120 0 255
-13.784005 0.25314406 28.074427 120 0 255
-16.908846 -6.469556 35.464478 120 0 255
-13.912627 -0.23627436 28.452646 120 0 255
-13.684887 2.4196208 27.946062 120 0 255
-13.656896 2.1777377 27.907421 120 0 255
-13.967696 -1.8369243 28.828382 120 0 255
-13.599965 3.4211724 27.809965 120 0 255
-13.492347 5.0314755 27.600584 120 0 255
-13.647299 1.3485234 28.23922 120 0 255
-13.490437 4.187597 27.793465 120 0 255
-13.5206995 3.2455034 27.966858 120 0 255
-13.651884 0.722448 28.416502 120 0 255
-14.680326 -2.1717947 30.937515 120 0 255
-13.5633 1.938575 28.194256 120 0 255
-13.5633 1.938575 28.194256 120 0 255
-13.406979 4.4330144 27.800154 120 0 255
-13.583125 0.83300793 28.396608 120 0 255
-13.49586 2.9978282 28.102493 120 0 255
-13.6104765 0.32963938 28.523382 120 0 255
-13.717504 -1.176121 28.878868 120 0 255
-14.480297 1.3650079 30.405487 120 0 255
-13.653791 -0.44356996 28.733538 120 0 255
-13.679489 -1.1357236 28.877508 120 0 255
-13.676133 -0.9258521 28.861752 120 0 255
-13.686225 -1.393216 28.943954 120 0 255
-13.868997 -2.6159554 29.57614 120 0 255
-13.31364 1.3398343 28.287931 120 0 255
-13.776513 -2.6253154 29.669483 120 0 255
-13.24192 1.4583591 28.46139 120 0 255
-13.437001 -1.6542816 29.087486 120 0 255
-20.824549 1.1021801 48.59567 120 0 255
-14.099916 -2.6189706 31.218601 120 0 255
-13.286409 -1.656239 29.299484 120 0 255
-14.386862 3.947696 32.36676 120 0 255
-14.356562 4.118572 32.373905 120 0 255
-14.396161 3.6494882 32.51024 120 0 255
-14.490585 1.6285183 32.880363 120 0 255
-14.435959 2.166158 32.767803 120 0 255
-14.386815 2.854347 32.62162 120 0 255
-14.274368 5.30393 32.220695 120 0 255
-14.358979 2.9984841 32.647324 120 0 255
-14.354564 3.413993 32.620247 120 0 255
-14.258254 4.0027456 32.48196 120 0 255
-14.338534 2.49847 32.799583 120 0 255
-14.476318 0.008551603 33.314507 120 0 255
-14.397022 -0.08559566 33.30564 120 0 255
-14.310169 -0.88967144 33.233578 120 0 255
-14.33758 -0.2411918 33.399258 120 0 255
-14.475399 -1.5285646 33.84417 120 0 255
-14.288489 -0.80107605 33.387978 120 0 255
-13.962926 6.950101 32.445805 120 0 255
-18.579283 7.444155 44.62493 120 0 255
-14.382602 -2.4826906 34.208412 120 0 255
-16.194828 6.1244664 38.53378 120 0 255
-16.203354 5.7934685 38.592426 120 0 255
-16.189941 5.6872063 38.589108 120 0 255
-16.221231 5.290473 38.697956 120 0 255
-16.221231 5.290473 38.697956 120 0 255
-13.863911 3.3734825 33.084034 120 0 255
-14.199305 -2.562447 34.330353 120 0 255
-14.199305 -2.562447 34.330353 120 0 255
-14.1931505 -2.5369906 34.342514 120 0 255
-13.833779 3.436835 33.157837 120 0 255
-14.154007 -2.5868535 34.412716 120 0 255
-14.152351 -2.667776 34.47641 120 0 255
-13.91277 -0.06563602 33.791225 120 0 255
-14.026352 -2.4701958 34.38961 120 0 255
-13.685503 4.883519 33.134514 120 0 255
-13.701978 4.539158 33.2055 120 0 255
-13.701978 4.539158 33.2055 120 0 255
-14.753585 6.078653 36.009674 120 0 255
-13.508511 6.9557056 32.61876 120 0 255
-14.01018 -2.7532222 34.56545 120 0 255
-14.01018 -2.7532222 34.56545 120 0 255
-14.891019 -4.5267134 37.09496 120 0 255
-13.979782 -2.741042 34.615532 120 0 255
-14.894319 -4.608585 37.221428 120 0 255
-13.484823 4.565573 33.35011 120 0 255
-13.465351 4.905375 33.27695 120 0 255
-13.442324 5.420571 33.19382 120 0 255
-13.452853 4.988142 33.26395 120 0 255
-13.377005 6.387237 33.077732 120 0 255
-15.216526 -5.1344786 38.843697 120 0 255
-13.611702 -1.1385757 34.41103 120 0 255
-14.974234 -5.8551173 38.59332 120 0 255
-14.961725 -5.2452745 38.563026 120 0 255
-13.593762 -2.4662223 34.712597 120 0 255
-13.530389 -1.3446904 34.70624 120 0 255
-14.772731 -5.678952 38.457977 120 0 255
-13.5901985 -2.1761482 34.958405 120 0 255
-13.296969 -1.117561 34.426956 120 0 255
-14.747465 -6.2504444 39.066418 120 0 255
-13.087348 4.308023 33.71654 120 0 255
-12.9883995 5.7604775 33.35202 120 0 255
-13.152763 1.7974042 34.135147 120 0 255
-12.992224 6.204986 33.420273 120 0 255
-14.829445 -7.241391 39.509956 120 0 255
-14.800753 -7.3586226 39.52524 120 0 255
-14.631303 -5.970508 38.971783 120 0 255
-14.631303 -5.970508 38.971783 120 0 255
-13.156176 1.0377535 34.33668 120 0 255
-14.766811 -6.951533 39.47469 120 0 255
-13.0402355 3.1806512 33.96506 120 0 255
-13.183259 -0.27641487 34.635414 120 0 255
-14.660721 -6.2160707 39.26502 120 0 255
-14.660847 -6.398527 39.336647 120 0 255
-14.734675 -7.251952 39.63023 120 0 255
-14.765916 -7.615514 39.750233 120 0 255
-12.959373 3.245453 33.9276 120 0 255
-14.645306 -6.697299 39.501564 120 0 255
-12.889215 3.7326033 34.010925 120 0 255
-12.889215 3.7326033 34.010925 120 0 255
-12.928132 3.049158 34.174892 120 0 255
-12.928132 3.049158 34.174892 120 0 255
-12.928132 3.049158 34.174892 120 0 255
-12.950665 2.1686323 34.29476 120 0 255
-13.680466 -3.3412669 36.82235 120 0 255
-14.530277 -6.4655633 39.52337 120 0 255
-13.007484 -1.1131779 34.787846 120 0 255
-13.01904 -0.38718683 34.859722 120 0 255
-13.079163 -1.6942295 35.181206 120 0 255
-12.950147 -0.261337 34.921635 120 0 255
-12.763011 2.083997 34.389053 120 0 255
-12.660609 3.8616514 34.13638 120 0 255
-12.779738 1.0613326 34.691753 120 0 255
-13.404169 -3.0888517 36.841793 120 0 255
-12.76504 1.3488292 34.681873 120 0 255
-12.672153 3.011281 34.30361 120 0 255
-12.672153 3.011281 34.30361 120 0 255
-12.770039 0.85431784 34.752056 120 0 255
-12.780908 0.3721718 34.880028 120 0 255
-12.758184 -1.0518337 34.92695 120 0 255
-12.500517 6.5256968 33.75182 120 0 255
-12.855086 -1.2025392 35.35296 120 0 255
-12.652307 2.349887 34.568783 120 0 255
-12.518709 1.7937633 34.816753 120 0 255
-12.668236 -1.1990908 35.45652 120 0 255
-12.707444 -2.4947956 35.689617 120 0 255
-12.46424 -0.85295093 35.163536 120 0 255
-12.46424 -0.85295093 35.163536 120 0 255
-12.646481 -2.5839572 35.86094 120 0 255
-12.612668 -2.462852 35.761814 120 0 255
-12.53414 -1.1213334 35.444286 120 0 255
-12.211367 7.393728 33.926235 120 0 255
-12.160049 7.235213 33.98325 120 0 255
-12.115811 0.021448512 35.46916 120 0 255
-12.198332 -2.7803843 36.179695 120 0 255
-12.068743 1.199858 35.65541 120 0 255
-12.158771 -2.7862058 36.302174 120 0 255
-13.176882 -6.095416 40.171 120 0 255
-11.942124 0.3754494 35.650238 120 0 255
-12.003247 -2.2302854 36.46897 120 0 255
-13.131237 -6.2712827 40.69916 120 0 255
-11.976169 -2.109587 36.506634 120 0 255
-11.642461 2.6657002 35.362247 120 0 255
-11.824704 -1.1080536 36.24372 120 0 255
-12.947386 -5.9131336 40.42388 120 0 255
-11.875669 -2.7308943 36.569244 120 0 255
-11.608175 2.2670872 35.418907 120 0 255
-11.744335 -2.2738128 36.393127 120 0 255
-11.729337 -1.0969001 36.29736 120 0 255
-11.729337 -1.0969001 36.29736 120 0 255
-12.8545475 -6.106531 40.84571 120 0 255
-12.8545475 -6.106531 40.84571 120 0 255
-11.716452 -2.0990193 36.60186 120 0 255
-11.551908 -1.0692204 36.16045 120 0 255
-11.551908 -1.0692204 36.16045 120 0 255
-11.354164 3.755478 35.177723 120 0 255
-11.479399 0.46347228 36.00492 120 0 255
-11.4233885 2.5380921 35.735493 120 0 255
-12.707163 -6.274649 40.99495 120 0 255
-11.250973 3.150516 35.52542 120 0 255
-11.180042 5.5278397 35.12418 120 0 255
-11.300648 1.9627773 35.803486 120 0 255
-11.330336 1.4539857 35.94421 120 0 255
-11.330336 1.4539857 35.94421 120 0 255
-11.275357 2.3099673 35.728725 120 0 255
-11.2296915 3.2998934 35.530838 120 0 255
-11.220041 3.8580356 35.46092 120 0 255
-11.209992 4.4618225 35.398655 120 0 255
-11.253474 2.3868458 35.73431 120 0 255
-11.332458 -0.70403004 36.22469 120 0 255
-11.329018 0.6341349 36.157974 120 0 255
-11.279868 1.5542845 35.95969 120 0 255
-12.503427 -6.0369377 40.909374 120 0 255
-11.18062 3.369449 35.582542 120 0 255
-11.18062 3.369449 35.582542 120 0 255
-11.1698675 2.5515456 35.771027 120 0 255
-11.800309 -3.318853 38.501587 120 0 255
-11.803678 -3.3900547 38.544014 120 0 255
-11.001646 4.2602096 35.57175 120 0 255
-10.953339 5.804829 35.290382 120 0 255
-11.260024 -1.7470412 36.960785 120 0 255
-11.626656 -3.0808773 38.536564 120 0 255
-10.930077 3.777582 35.74778 120 0 255
-11.012641 1.3584963 36.249752 120 0 255
-10.88167 3.4133816 35.883858 120 0 255
-11.47076 -3.1746106 38.675613 120 0 255
-10.855789 2.1750836 36.155903 120 0 255
-10.903561 0.7969397 36.433147 120 0 255
-10.845474 2.0006049 36.219326 120 0 255
-10.856436 1.4911174 36.305943 120 0 255
-11.4029255 -3.1000068 38.76067 120 0 255
-10.886659 -0.35124978 36.681572 120 0 255
-10.703961 3.8291788 35.89608 120 0 255
-10.751308 2.2586107 36.200974 120 0 255
-11.977733 -6.122135 41.5271 120 0 255
-11.954392 -6.038329 41.46659 120 0 255
-10.769102 -0.22582038 36.783783 120 0 255
-10.726036 -1.0311973 36.68463 120 0 255
-11.796188 -6.1276207 41.71012 120 0 255
-10.733905 -1.252903 37.26271 120 0 255
-11.763027 -6.0851116 41.742954 120 0 255
-10.467946 3.5444896 36.004852 120 0 255
-11.70664 -6.120657 41.734913 120 0 255
-11.614151 -5.854659 41.489826 120 0 255
-10.426938 4.289605 36.132755 120 0 255
-11.656337 -6.1306286 41.78992 120 0 255
-11.611863 -6.01874 41.685104 120 0 255
-10.416997 2.9480078 36.28864 120 0 255
-11.570882 -5.824905 41.55537 120 0 255
-11.494783 -6.020332 41.78542 120 0 255
-10.531906 -2.6044455 37.653397 120 0 255
-10.223162 2.9825413 36.398132 120 0 255
-10.135424 3.6914382 36.25929 120 0 255
-9.874062 2.51382 35.2992 120 0 255
-6.1521587 0.880105 19.802124 120 0 255
-10.20302 -0.36980134 37.163937 120 0 255
-10.226153 -2.525714 37.95209 120 0 255
-10.165049 -2.6129138 37.80665 120 0 255
-11.330402 -7.0877457 43.227947 120 0 255
-10.96942 -5.785521 41.597687 120 0 255
-10.21056 -2.748086 38.16975 120 0 255
-11.042243 -6.2975535 42.280403 120 0 255
-10.897689 -6.15005 42.45219 120 0 255
-9.749804 0.68084794 37.53491 120 0 255
-10.780843 -6.3604164 42.667664 120 0 255
-10.748113 -6.312413 42.68136 120 0 255
-9.576305 3.6689029 36.872227 120 0 255
-9.747519 -1.9843788 38.093567 120 0 255
-10.657871 -6.3297567 42.787567 120 0 255
-9.624226 -1.0760332 37.94152 120 0 255
-10.014551 -3.0789547 39.93247 120 0 255
-9.626839 -1.2473444 38.227837 120 0 255
-10.284056 -6.505658 42.258984 120 0 255
-9.842448 -3.5492284 40.025784 120 0 255
-9.316826 2.11781 37.471413 120 0 255
-9.352253 0.5844687 37.76107 120 0 255
-9.352253 0.5844687 37.76107 120 0 255
-9.321972 0.41131085 37.799557 120 0 255
-9.321972 0.41131085 37.799557 120 0 255
-9.997649 -4.9264865 41.786537 120 0 255
-10.0835 -7.2919526 42.387005 120 0 255
-10.08465 -7.4788213 42.44465 120 0 255
-9.123236 2.7490826 37.32396 120 0 255
-9.913556 -4.917178 41.836296 120 0 255
-10.034062 -7.601432 42.6256 120 0 255
-9.553862 -2.965749 40.049393 120 0 255
-9.096014 2.4001732 37.4277 120 0 255
-9.096054 1.8693519 37.471226 120 0 255
-9.117053 1.360463 37.618168 120 0 255
-9.562523 -3.005869 40.189247 120 0 255
-9.140969 0.34491226 37.909184 120 0 255
-9.965267 -7.6512284 42.569923 120 0 255
-8.908628 6.5642204 36.35942 120 0 255
-9.864773 -5.332161 41.964436 120 0 255
-9.882018 -5.9972644 42.149063 120 0 255
-8.904979 -0.81706566 37.21178 120 0 255
-9.865385 -6.8250046 42.420925 120 0 255
-9.8837805 -7.6078444 42.660282 120 0 255
-9.751776 -5.405229 42.088757 120 0 255
-9.768774 -5.8989983 42.222588 120 0 255
-9.690392 -4.7864404 41.919704 120 0 255
-8.8163805 -0.6381301 37.23856 120 0 255
-8.869579 -0.541925 37.563362 120 0 255
-9.301254 -2.8822398 40.324856 120 0 255
-9.658444 -6.226675 42.578953 120 0 255
-8.729353 -0.25373247 37.413185 120 0 255
-8.752498 -1.0228513 37.62641 120 0 255
-8.615847 3.3508036 36.703568 120 0 255
-8.674467 -0.2229229 37.376057 120 0 255
-9.620555 -5.8799715 43.222977 120 0 255
-9.419872 -5.890807 42.58045 120 0 255
-8.504397 3.5234175 37.114902 120 0 255
-8.318541 -0.7546986 37.618477 120 0 255
-8.308531 -0.055548556 37.73423 120 0 255
-8.3283205 -1.4693648 38.239643 120 0 255
-8.3283205 -1.4693648 38.239643 120 0 255
-8.138925 0.38939255 37.71141 120 0 255
-8.068021 1.9668707 37.33899 120 0 255
-7.847264 2.8915002 36.68068 120 0 255
-8.017193 -0.82421654 37.96007 120 0 255
-7.8565464 3.0748572 36.978897 120 0 255
-7.9650574 -0.075812496 37.937904 120 0 255
-7.842657 3.1492896 36.987797 120 0 255
-7.974217 -1.4236481 38.560646 120 0 255
-7.7127275 6.680946 36.450554 120 0 255
-7.928289 -1.2143095 38.407276 120 0 255
-7.958988 -1.557966 38.71333 120 0 255
-8.653505 -6.3770013 43.21629 120 0 255
-7.8984785 -1.2823672 38.414707 120 0 255
-8.870339 -8.697445 44.86945 120 0 255
-7.8720284 -1.4795278 38.51667 120 0 255
-7.66837 3.6163156 36.977386 120 0 255
-8.188646 -3.8794842 41.41208 120 0 255
-8.188646 -3.8794842 41.41208 120 0 255
-8.441251 -6.2568192 43.306194 120 0 255
-8.409027 -6.1972938 43.208523 120 0 255
-8.66646 -8.915705 45.26273 120 0 255
-8.35593 -6.2063026 43.326748 120 0 255
-8.359786 -6.2635794 43.421524 120 0 255
-7.6364636 -1.4337124 38.66104 120 0 255
-8.529045 -8.889534 45.061634 120 0 255
-8.501225 -8.796704 44.928318 120 0 255
-8.495223 -8.9529705 45.083454 120 0 255
-8.492941 -9.351376 45.1826 120 0 255
-7.704952 -2.9633193 39.766953 120 0 255
-8.541906 -9.946583 45.68204 120 0 255
-7.707203 -2.839206 39.86977 120 0 255
-8.445964 -8.739065 45.047863 120 0 255
-8.562739 -11.134291 46.222908 120 0 255
-8.187584 -6.432249 43.602764 120 0 255
-7.4133472 -1.0852888 38.25771 120 0 255
-8.080397 -5.61227 42.90872 120 0 255
-8.513921 -10.589858 46.09262 120 0 255
-8.513921 -10.589858 46.09262 120 0 255
-8.494185 -10.368495 46.002472 120 0 255
-8.4818 -10.110917 45.937363 120 0 255
-8.4818 -10.110917 45.937363 120 0 255
-8.411231 -10.045781 45.978943 120 0 255
-7.427088 -1.9069229 38.9554 120 0 255
-7.255454 3.9337845 37.37776 120 0 255
-8.065299 -7.144428 44.15376 120 0 255
-7.3205686 -1.6033976 38.945137 120 0 255
-8.028678 -6.9333363 44.164898 120 0 255
-7.1171255 3.696067 37.340374 120 0 255
-6.4358187 7.8074546 32.898872 120 0 255
-7.202548 -2.5538807 39.336987 120 0 255
-7.831685 -6.5772815 44.09338 120 0 255
-7.172823 -3.028359 39.426254 120 0 255
-7.136207 -2.4217029 39.291843 120 0 255
-7.8929386 -7.7750616 45.465355 120 0 255
-7.8488493 -7.6142964 45.422974 120 0 255
-6.878485 4.5525193 38.075245 120 0 255
-6.9447465 -3.1407146 39.594425 120 0 255
-6.8473215 -0.41879284 38.736866 120 0 255
-6.8473215 -0.41879284 38.736866 120 0 255
-6.8113527 -0.4215805 38.586174 120 0 255
-6.8113527 -0.4215805 38.586174 120 0 255
-6.9071646 -3.4964428 39.609386 120 0 255
-6.846625 1.4600798 38.808723 120 0 255
-6.8933907 -3.2312012 39.65551 120 0 255
-6.8062067 -0.79446137 38.81375 120 0 255
-6.990082 -2.755033 40.49925 120 0 255
-6.990082 -2.755033 40.49925 120 0 255
-7.475851 -7.210294 44.722786 120 0 255
-6.257997 7.512964 34.692833 120 0 255
-6.807696 -3.6624155 39.92926 120 0 255
-6.808387 -4.0664306 40.01458 120 0 255
-6.773691 -3.9277515 40.00202 120 0 255
-6.73744 -3.0529041 39.707775 120 0 255
-6.756217 -4.109232 40.057217 120 0 255
-6.5951705 4.7829347 38.143753 120 0 255
-6.687648 -3.5426126 39.79505 120 0 255
-6.5591803 4.925573 38.085617 120 0 255
-6.6874285 -3.8985524 39.938816 120 0 255
-6.703546 -4.099769 40.076565 120 0 255
-6.694952 -4.0954485 40.03495 120 0 255
-7.297749 -7.3756666 44.92184 120 0 255
-7.207967 -6.372643 44.316624 120 0 255
-6.6118164 2.3848848 38.96961 120 0 255
-6.6118164 2.3848848 38.96961 120 0 255
-6.562569 1.3233773 38.871147 120 0 255
-6.613365 -3.824765 39.952744 120 0 255
-6.613534 -4.166384 40.00897 120 0 255
-6.613534 -4.166384 40.00897 120 0 255
-6.5985913 -3.2690258 39.989643 120 0 255
-6.4167953 3.9390655 37.909706 120 0 255
-6.4869056 -0.35079584 38.966934 120 0 255
-7.085074 -6.2482386 44.312614 120 0 255
-7.0613627 -6.127928 44.12243 120 0 255
-6.5171804 -3.4843252 39.84854 120 0 255
-6.519303 -3.1930223 39.931377 120 0 255
-6.513828 -3.6049454 40.015373 120 0 255
-7.0580053 -6.701797 44.593803 120 0 255
-6.42346 0.34577665 39.006607 120 0 255
-7.046438 -6.510443 44.580696 120 0 255
-7.0331974 -6.614425 44.54485 120 0 255
-6.350548 1.5148429 39.162056 120 0 255
-5.671292 7.696595 33.046883 120 0 255
-6.6731095 5.06927 41.901917 120 0 255
-6.2660704 2.8129845 38.838474 120 0 255
-6.1803637 3.8894851 38.037254 120 0 255
-6.2322927 0.8143374 39.067688 120 0 255
-6.1782036 4.980508 38.291935 120 0 255
-6.149196 6.5170383 38.06206 120 0 255
-6.271795 -2.5358114 40.056217 120 0 255
-6.0648727 3.1072822 38.30758 120 0 255
-6.085488 0.67579454 39.40047 120 0 255
-6.0736427 0.6730634 39.33893 120 0 255
-6.5866857 -6.68448 44.593544 120 0 255
-6.0698967 -1.0778521 39.72709 120 0 255
-6.080738 -2.393117 39.968727 120 0 255
-6.0247025 -0.918307 39.451904 120 0 255
-5.671808 7.5627437 35.553772 120 0 255
-5.9717717 -2.206399 40.21465 120 0 255
-5.929859 -1.2745134 39.950615 120 0 255
-5.929859 -1.2745134 39.950615 120 0 255
-5.8276877 -1.8151604 40.193653 120 0 255
-6.412377 -6.3735003 46.046986 120 0 255
-5.921517 -3.5665598 41.458164 120 0 255
-5.7499695 0.6920485 39.480865 120 0 255
-5.8231177 -2.9236479 40.66239 120 0 255
-6.346361 -7.602621 46.01693 120 0 255
-5.7906427 -3.056872 40.416267 120 0 255
-5.7906427 -3.056872 40.416267 120 0 255
-5.7568436 -1.7370739 40.167454 120 0 255
-6.286392 -7.4828973 45.96813 120 0 255
-5.7388816 -1.5541879 40.20977 120 0 255
-5.6785064 -0.75976837 39.580162 120 0 255
-5.6785064 -0.75976837 39.580162 120 0 255
-6.238191 -6.196561 45.749344 120 0 255
-5.6987643 -1.601085 40.171738 120 0 255
-5.6265516 -1.5131755 40.150646 120 0 255
-6.0876393 -7.5947948 45.50146 120 0 255
-6.0777555 -7.884896 45.88727 120 0 255
-6.060005 -7.865404 45.781826 120 0 255
-5.4400263 3.9503639 38.641876 120 0 255
-5.982786 -7.593905 45.488014 120 0 255
-5.5059447 -1.1757883 40.1314 120 0 255
-5.5059447 -1.1757883 40.1314 120 0 255
-5.893433 -6.01745 45.261944 120 0 255
-5.8880687 -6.8306684 45.62823 120 0 255
-5.808953 -5.397593 45.113106 120 0 255
-5.3784504 -1.2522116 40.26134 120 0 255
-5.798631 -5.4933453 45.08593 120 0 255
-5.7607455 -6.4985857 45.4318 120 0 255
-5.3597894 -1.7991729 40.778137 120 0 255
-4.915281 7.7086396 35.25033 120 0 255
-5.294587 -1.0837655 40.390213 120 0 255
-5.666734 -5.1161222 45.087543 120 0 255
-5.7031727 -7.5544496 45.778755 120 0 255
-5.6891494 -7.4840612 45.7974 120 0 255
-5.668407 -6.502434 45.54431 120 0 255
-5.6739025 -7.1396394 45.695545 120 0 255
-5.6166067 -4.5403104 44.79694 120 0 255
-5.648446 -7.0819135 45.71956 120 0 255
-5.216559 -1.0883517 40.379066 120 0 255
-5.6416593 -6.831492 45.652008 120 0 255
-5.0253925 6.970743 37.60425 120 0 255
-5.1280017 -0.934705 40.072067 120 0 255
-5.1530538 -1.0707142 40.423157 120 0 255
-5.0941668 -0.28803095 40.19815 120 0 255
-4.9414115 4.0777082 39.02718 120 0 255
-4.969261 1.3775766 39.698673 120 0 255
-4.879525 6.99586 38.435513 120 0 255
-4.826126 0.5708832 40.066486 120 0 255
-4.816292 -1.0427334 40.377045 120 0 255
-4.731177 3.302685 39.084717 120 0 255
-4.748223 2.1835248 39.76974 120 0 255
-4.9894958 -3.0381804 43.809254 120 0 255
-4.9894958 -3.0381804 43.809254 120 0 255
-5.1816893 -6.19583 47.030666 120 0 255
-4.950291 -2.9318674 43.724766 120 0 255
-4.415351 7.229434 38.787727 120 0 255
-4.8639393 -6.131368 47.15884 120 0 255
-4.469235 -1.2961931 41.219524 120 0 255
-4.427515 0.30068567 40.46243 120 0 255
-4.5720954 -2.9063864 43.881493 120 0 255
-4.330811 -1.8309339 42.124134 120 0 255
-4.2034965 3.892389 39.602215 120 0 255
-4.5633335 -6.000351 47.012333 120 0 255
-4.147908 -1.2539675 41.419617 120 0 255
-4.01165 -0.5875018 40.74707 120 0 255
-4.057724 0.3958931 41.72367 120 0 255
-4.0568027 -2.612366 43.308796 120 0 255
-4.175293 -6.2196097 47.653095 120 0 255
-3.9236228 -2.2717671 42.613976 120 0 255
-3.8766763 -2.249191 42.70214 120 0 255
-4.076788 -6.366441 47.774136 120 0 255
-3.9499962 -6.029773 47.50865 120 0 255
-3.6278925 1.2098315 42.091125 120 0 255
-3.6262653 -2.3183856 42.91081 120 0 255
-3.6179297 3.1437888 41.807716 120 0 255
-3.5315661 6.339915 41.180687 120 0 255
-3.674032 -6.2335453 47.84372 120 0 255
-3.589805 -6.0780344 47.876534 120 0 255
-3.4078937 -2.6184964 43.149464 120 0 255
-3.385661 -2.3347778 43.103313 120 0 255
-3.3561046 1.4687558 42.281742 120 0 255
-3.3224301 2.784229 41.96796 120 0 255
-3.3224301 2.784229 41.96796 120 0 255
-3.231994 4.5094733 41.219242 120 0 255
-3.211644 -2.2241125 43.056396 120 0 255
-3.0079734 8.387445 36.11021 120 0 255
-3.0919695 -0.4217977 42.421177 120 0 255
-3.0919695 -0.4217977 42.421177 120 0 255
-3.2472527 -6.286728 48.262657 120 0 255
-3.2233334 -6.140228 48.173313 120 0 255
-3.1171463 -3.0935528 45.11253 120 0 255
-3.1034436 -2.891735 45.028496 120 0 255
-3.027375 3.4978294 41.411995 120 0 255
-2.996892 -0.3158313 42.565956 120 0 255
-3.0039365 1.2457644 42.49244 120 0 255
-3.0228627 -2.9636598 44.986275 120 0 255
-3.0825913 -6.4412193 48.46437 120 0 255
-2.906615 3.180029 42.005623 120 0 255
-2.8705714 8.372728 40.604946 120 0 255
-2.8723097 -3.154705 45.385548 120 0 255
-2.7783976 -1.6451848 43.338512 120 0 255
-2.7590578 -0.89974725 43.17154 120 0 255
-2.7434077 3.358763 41.91787 120 0 255
-2.7309256 2.980711 42.03681 120 0 255
-2.7189548 -0.70694506 43.183163 120 0 255
-2.5668106 3.597526 41.819466 120 0 255
-2.5601652 -2.8696702 45.42645 120 0 255
-2.5709453 -6.108798 48.490993 120 0 255
-2.5044932 2.5992 42.18972 120 0 255
-2.526162 -6.052042 48.468376 120 0 255
-2.3713539 1.4952596 42.7181 120 0 255
-2.3904107 -6.2237096 48.762173 120 0 255
-2.3407516 1.425031 42.705334 120 0 255
-2.3246179 1.6682318 42.750008 120 0 255
-2.2445753 -1.432546 43.860847 120 0 255
-2.2445753 -1.432546 43.860847 120 0 255
-2.191468 -0.65550274 43.089756 120 0 255
-2.1096313 0.33293393 43.07245 120 0 255
-2.123189 4.3046126 41.828724 120 0 255
-2.0317843 -1.5111539 44.393402 120 0 255
-1.9229089 -0.26025453 43.312523 120 0 255
-1.9759841 7.6585755 41.33428 120 0 255
-1.8948718 0.47714952 42.85306 120 0 255
-1.8860018 -5.862445 48.754368 120 0 255
-1.9155494 4.503591 42.1975 120 0 255
-1.8578874 -6.0399513 48.935036 120 0 255
-1.8868887 9.005512 39.338665 120 0 255
-1.7613503 -6.133394 43.48514 120 0 255
-1.8035977 0.992685 43.206486 120 0 255
-1.7807214 -0.88325804 43.758114 120 0 255
-1.7503875 -1.6670482 44.170914 120 0 255
-1.7716742 2.0837739 42.863674 120 0 255
-1.7764375 3.0281427 42.610588 120 0 255
-1.6126933 -6.393758 49.33596 120 0 255
-1.6165662 -1.6715424 44.104332 120 0 255
-1.5591646 -0.68955064 43.767857 120 0 255
-1.5211127 -2.1531458 44.16337 120 0 255
-1.5594689 5.406261 42.151524 120 0 255
-1.5594689 5.406261 42.151524 120 0 255
-1.5394958 6.5184484 41.94931 120 0 255
-1.4680324 0.5215947 43.509674 120 0 255
-1.4680324 0.5215947 43.509674 120 0 255
-1.4085227 -2.182095 44.29717 120 0 255
-1.3833835 -2.4122558 44.204918 120 0 255
-1.2767426 -6.018428 49.23503 120 0 255
-1.3274531 -1.7664381 44.287483 120 0 255
-1.3883936 8.890556 39.654465 120 0 255
-1.2838689 -0.20917867 43.628014 120 0 255
-1.3097886 3.4745922 42.846645 120 0 255
-1.3097886 3.4745922 42.846645 120 0 255
-1.2657127 3.6586273 42.8566 120 0 255
-1.1879776 -0.18963994 43.671085 120 0 255
-1.0651157 -5.8240314 49.204945 120 0 255
-0.99280095 -6.465965 49.779007 120 0 255
-1.0486646 -2.4156456 44.524693 120 0 255
-0.93838793 -7.743037 50.33927 120 0 255
-0.9399789 -7.6249294 50.226112 120 0 255
-0.9404552 -6.7425337 49.926167 120 0 255
-0.94224215 -6.3508224 49.614517 120 0 255
-0.9330323 -6.8887887 50.063953 120 0 255
-1.0444548 -0.22114868 43.808224 120 0 255
-1.0444548 -0.22114868 43.808224 120 0 255
-1.0219561 -2.2011075 44.32789 120 0 255
-0.88245076 -7.710424 50.31961 120 0 255
-0.88245076 -7.710424 50.31961 120 0 255
-0.99150074 -2.2623265 44.583225 120 0 255
-0.84614396 -6.9858246 50.089798 120 0 255
-0.84614396 -6.9858246 50.089798 120 0 255
-0.83388615 -7.58367 50.209217 120 0 255
-0.83009905 -7.661763 50.221058 120 0 255
-0.8378026 -6.3841124 49.85562 120 0 255
-0.9617351 -0.28564376 43.790062 120 0 255
-0.84285927 -5.779654 49.327854 120 0 255
-0.7761971 -6.6863065 50.042686 120 0 255
-0.98990697 8.533516 41.782604 120 0 255
-0.6926601 -6.491281 49.9158 120 0 255
-0.77630055 -2.8648198 46.373432 120 0 255
-0.8381181 -0.27821812 43.693825 120 0 255
-0.89608014 5.724913 42.665806 120 0 255
-0.89608014 5.724913 42.665806 120 0 255
-0.64040667 -6.4229813 49.963226 120 0 255
-0.84898 5.013083 42.64742 120 0 255
1.4179274 37.391716 174.7283 120 0 255
1.4179274 37.391716 174.7283 120 0 255
-0.5235259 -6.070303 49.90568 120 0 255
-0.60353637 -3.1996565 46.850075 120 0 255
-0.60353637 -3.1996565 46.850075 120 0 255
-0.6290596 -0.58160925 44.292652 120 0 255
-0.74368644 8.706699 41.86167 120 0 255
-0.5821434 -2.1109254 44.817192 120 0 255
-0.50577956 -2.9990263 46.72918 120 0 255
-0.6511864 5.7431626 42.80937 120 0 255
-0.6511864 5.7431626 42.80937 120 0 255
-0.3653439 -2.767817 46.708088 120 0 255
-0.45230886 1.2152734 44.00155 120 0 255
-0.45230886 1.2152734 44.00155 120 0 255
-0.5558494 8.578194 42.07393 120 0 255
-0.4003497 -1.7390238 44.923466 120 0 255
-0.4116025 -1.0050697 44.63518 120 0 255
-0.3106675 -2.8430116 46.54642 120 0 255
-0.36110163 -1.4815071 44.82959 120 0 255
-0.3959279 1.170136 44.122528 120 0 255
-0.19676797 -2.8520424 46.832985 120 0 255
-0.18924502 -0.5837669 44.803467 120 0 255
-0.1629479 1.1051255 44.224537 120 0 255
-0.12510785 -1.1136508 44.8902 120 0 255
0.0069315745 -3.0025275 47.03364 120 0 255
-0.12367657 1.6570684 44.01986 120 0 255
0.039869543 -2.7069871 46.8733 120 0 255
-0.06275613 1.6370115 44.35625 120 0 255
-0.01304071 0.18022765 44.563583 120 0 255
-0.10909215 6.036523 42.830746 120 0 255
-0.10909215 6.036523 42.830746 120 0 255
0.03169987 1.471143 44.144012 120 0 255
0.03759813 2.1984646 43.976826 120 0 255
0.17040347 -1.0801893 45.158264 120 0 255
0.15465827 1.0889394 44.417892 120 0 255
0.094674125 6.0883875 43.0264 120 0 255
0.17443971 2.2091022 44.040203 120 0 255
0.18685386 3.397736 43.73 120 0 255
0.13614853 6.149093 42.91972 120 0 255
0.2753351 -0.15162496 44.56069 120 0 255
0.6457715 -6.414689 52.463593 120 0 255
0.22136424 3.778636 43.437454 120 0 255
0.73838395 -6.3873153 52.200462 120 0 255
0.7468184 -6.3139606 52.296078 120 0 255
0.7468184 -6.3139606 52.296078 120 0 255
0.2540349 7.8035593 42.585777 120 0 255
0.8856124 -5.5404162 52.069523 120 0 255
0.8992468 -5.7936397 51.990894 120 0 255
0.5174092 2.509818 44.310978 120 0 255
0.5277036 1.968896 44.383823 120 0 255
0.94403315 -6.444808 51.87931 120 0 255
0.9488775 -4.706399 51.65854 120 0 255
0.5161794 4.74032 43.598274 120 0 255
0.62768054 0.21009763 44.920105 120 0 255
0.62768054 0.21009763 44.920105 120 0 255
0.589838 2.9668188 44.146866 120 0 255
0.56029737 4.3126626 43.639328 120 0 255
0.62607336 2.791717 44.197094 120 0 255
0.61349607 4.6582584 43.70292 120 0 255
0.48260623 8.165447 41.371044 120 0 255
0.8369666 -0.7488367 45.416386 120 0 255
0.672849 6.668206 43.162872 120 0 255
0.66340214 7.204838 43.0455 120 0 255
0.66340214 7.204838 43.0455 120 0 255
0.87707627 2.2865388 46.24481 120 0 255
0.84840983 -0.6251456 45.25087 120 0 255
0.7887369 2.2520547 44.38014 120 0 255
0.9020756 -1.1431171 45.89708 120 0 255
0.8082352 4.6291404 43.746796 120 0 255
0.8082352 4.6291404 43.746796 120 0 255
1.228804 -3.796521 49.596165 120 0 255
1.3423401 -4.512427 50.763695 120 0 255
1.4038836 -6.737484 50.828087 120 0 255
1.0020064 3.577477 42.023514 120 0 255
-0.7404003 3.7752974 13.913851 120 0 255
0.9081961 8.631878 41.156925 120 0 255
1.0792706 5.6893387 43.476517 120 0 255
1.6016916 -6.850833 50.36519 120 0 255
1.1860404 2.7939956 44.57104 120 0 255
1.1614975 3.8034103 44.23669 120 0 255
1.2078782 3.5081098 44.66902 120 0 255
1.629709 -6.6347017 50.282066 120 0 255
1.6645741 -6.826599 50.351135 120 0 255
1.6600058 -4.296577 50.05048 120 0 255
1.4408022 -2.1178992 46.02403 120 0 255
1.7252841 -4.7972183 49.852978 120 0 255
1.7784147 -6.427105 50.198875 120 0 255
1.7825938 -4.922729 50.008266 120 0 255
-0.6538366 3.8116071 13.90163 120 0 255
1.8183745 -5.6034126 49.98905 120 0 255
1.817687 -5.3038626 49.8487 120 0 255
1.8974863 -5.788187 50.152237 120 0 255
1.919799 -6.896888 50.35353 120 0 255
1.941276 -6.33323 50.29669 120 0 255
1.941276 -6.33323 50.29669 120 0 255
1.4927557 3.1956885 44.619 120 0 255
1.4927557 3.1956885 44.619 120 0 255
1.4452077 4.666406 44.039234 120 0 255
1.9139835 -4.659053 49.899593 120 0 255
-0.6127198 3.7685046 13.910722 120 0 255
1.9706259 -5.7173986 50.13255 120 0 255
1.9706259 -5.7173986 50.13255 120 0 255
1.9368114 -4.053222 49.694088 120 0 255
2.01847 -6.7936935 50.394073 120 0 255
1.5028979 5.897876 44.0911 120 0 255
1.9909134 -4.673705 49.875256 120 0 255
1.9909134 -4.673705 49.875256 120 0 255
1.5685225 3.8089018 44.31571 120 0 255
2.043959 -5.756577 50.12791 120 0 255
2.005924 -4.0788617 49.645615 120 0 255
1.9812574 -2.937845 49.31305 120 0 255
-0.58548886 3.7349715 13.908492 120 0 255
2.1079667 -6.7833805 50.584843 120 0 255
1.5365063 7.395281 43.627384 120 0 255
-0.5655647 3.5306156 13.977053 120 0 255
1.6246133 4.2910814 44.2523 120 0 255
-0.56204474 3.5164711 13.987819 120 0 255
2.143036 -6.0689735 50.333286 120 0 255
2.149956 -5.301174 50.05279 120 0 255
-0.546372 3.5022879 13.98516 120 0 255
-0.54331166 3.5447142 13.99616 120 0 255
1.8224293 1.7859659 45.43416 120 0 255
-0.5279051 3.7905185 13.997116 120 0 255
2.2490516 -4.383578 49.907776 120 0 255
2.250617 -4.212323 49.915424 120 0 255
1.7816265 5.548791 44.342197 120 0 255
1.7676536 5.135773 44.10782 120 0 255
1.7743545 6.202429 44.199936 120 0 255
1.7805564 6.7098694 44.052208 120 0 255
1.7853388 7.200336 43.946327 120 0 255
2.2768054 -2.6327538 49.282963 120 0 255
1.7844884 7.717607 43.770893 120 0 255
1.8750647 5.748198 44.286808 120 0 255
2.1131365 -0.5329719 46.0133 120 0 255
2.1154394 3.2580783 44.831505 120 0 255
2.8917897 -4.7773256 53.542 120 0 255
2.1045463 3.734437 44.648052 120 0 255
2.9362319 -5.914063 53.76076 120 0 255
2.1813445 2.8963819 45.04495 120 0 255
2.9733698 -4.996281 53.66075 120 0 255
3.0081775 -6.1466236 53.89395 120 0 255
3.0128932 -6.251938 53.92587 120 0 255
3.0010111 -5.7978044 53.78494 120 0 255
3.0005498 -6.0176406 53.754265 120 0 255
2.9980805 -5.2613707 53.612885 120 0 255
3.0052876 -5.4015565 53.65369 120 0 255
3.0078092 -5.3452673 53.68829 120 0 255
3.0181234 -5.598126 53.698475 120 0 255
3.0648203 -6.230283 53.942963 120 0 255
3.1036599 -6.1878114 53.841103 120 0 255
3.1073987 -6.2636337 53.877136 120 0 255
3.0670907 -5.0938263 53.461246 120 0 255
0.46787697 -2.8701906 23.812155 120 0 255
3.1103668 -5.7112093 53.80965 120 0 255
3.0599368 -4.8026223 53.130245 120 0 255
2.3893962 0.6308357 45.65001 120 0 255
3.1722775 -5.605654 53.818985 120 0 255
3.1833947 -6.0377793 53.917725 120 0 255
2.3771186 2.7563772 45.218723 120 0 255
2.3976562 3.1170256 45.13304 120 0 255
2.2476916 8.099365 43.542614 120 0 255
3.1108131 -4.3822794 52.22473 120 0 255
2.9418714 -6.097231 50.135567 120 0 255
2.4902387 2.699553 45.249905 120 0 255
2.4328265 4.856414 44.606773 120 0 255
2.4994388 3.2570376 45.12725 120 0 255
2.5745463 1.5179341 45.67478 120 0 255
2.59176 2.0692842 45.505646 120 0 255
2.5933917 2.619048 45.346714 120 0 255
2.5138817 5.726648 44.44507 120 0 255
2.754052 -0.6500559 46.515526 120 0 255
2.5468853 5.776222 44.444466 120 0 255
2.706097 -0.068086565 45.740078 120 0 255
2.743051 0.27733904 46.034966 120 0 255
2.7589319 0.15231606 46.10132 120 0 255
2.619181 5.428034 44.53957 120 0 255
2.648288 4.63238 44.634853 120 0 255
2.6745372 4.0918903 44.855686 120 0 255
2.6236289 6.5343328 44.26506 120 0 255
3.4499502 -4.903663 52.160385 120 0 255
2.7169788 3.9549243 44.944717 120 0 255
2.828994 0.62610394 45.650524 120 0 255
2.764637 4.1115723 44.99209 120 0 255
2.6854138 7.9304833 43.883743 120 0 255
2.8431737 3.729855 45.072433 120 0 255
3.5305793 -6.75442 51.352226 120 0 255
3.5135236 -6.2400126 51.190285 120 0 255
3.5135236 -6.2400126 51.190285 120 0 255
2.889694 2.491163 45.2916 120 0 255
2.8920922 3.0359678 45.178017 120 0 255
3.571564 -6.061687 51.178932 120 0 255
3.5745008 -5.5242076 51.031662 120 0 255
2.9551234 -0.21574545 45.11801 120 0 255
3.6116579 -6.539543 51.251072 120 0 255
3.6406345 -6.3395286 51.1858 120 0 255
3.6373396 -6.3272085 51.100147 120 0 255
2.9375937 4.5209036 44.568806 120 0 255
3.6429095 -5.1795235 50.926903 120 0 255
3.008328 3.082289 44.999863 120 0 255
2.9161298 6.60935 44.2174 120 0 255
2.9161298 6.60935 44.2174 120 0 255
2.885956 7.9344754 43.88936 120 0 255
2.9701705 4.477049 44.502445 120 0 255
3.672642 -4.5957427 50.51106 120 0 255
3.0558043 4.173844 44.91193 120 0 255
3.1301696 1.2122682 45.286526 120 0 255
3.7829838 -5.3368893 51.137188 120 0 255
3.8343472 -6.556686 51.44364 120 0 255
2.9577308 8.0499325 43.44392 120 0 255
3.8370085 -5.062971 50.56411 120 0 255
3.9736764 -6.4784145 51.417587 120 0 255
3.9514818 -5.6850786 51.20485 120 0 255
3.3301113 -2.117213 45.244823 120 0 255
3.3301113 -2.117213 45.244823 120 0 255
4.0285807 -6.03021 51.424335 120 0 255
3.2919352 1.2592051 44.87494 120 0 255
3.3759108 -1.8676889 45.2865 120 0 255
3.4015849 -1.8501656 45.25572 120 0 255
3.4120276 -1.0740522 45.04248 120 0 255
3.3979218 -0.9709008 44.870464 120 0 255
3.5268211 -2.6799953 45.135036 120 0 255
3.1753864 9.439924 42.429478 120 0 255
3.579926 -2.693699 44.91562 120 0 255
4.172337 -5.064282 49.980732 120 0 255
3.5121944 0.5788561 44.326054 120 0 255
3.5408463 1.090534 44.199623 120 0 255
4.31336 -5.601616 50.261265 120 0 255
3.4909706 3.064968 43.516907 120 0 255
4.5965962 -7.0031915 52.125416 120 0 255
4.340678 -5.2881985 49.81551 120 0 255
3.5232008 5.1284785 43.25611 120 0 255
3.7554011 -2.2659767 44.579903 120 0 255
3.6851118 0.25623035 44.037395 120 0 255
4.4259744 -5.665141 49.912254 120 0 255
3.6758287 1.3161119 43.866177 120 0 255
3.793145 -2.1175406 44.36793 120 0 255
3.5244539 7.817142 42.40961 120 0 255
3.8221 -1.9012073 44.407085 120 0 255
3.7455065 -0.16385974 43.83048 120 0 255
3.6476142 4.3798695 43.043858 120 0 255
3.8439994 -2.119282 44.361095 120 0 255
3.8481991 -1.5215449 44.216976 120 0 255
3.6630688 5.0895286 42.852394 120 0 255
3.7627633 -0.6290666 43.429646 120 0 255
3.588492 7.748325 42.33065 120 0 255
3.6674507 5.4741616 42.75056 120 0 255
3.572099 9.264034 41.67142 120 0 255
3.6783493 7.0690293 42.39634 120 0 255
4.9607596 -6.841922 52.02557 120 0 255
3.8613038 3.7892709 43.610424 120 0 255
3.8527136 -0.88706475 43.2559 120 0 255
3.9534843 -1.3728776 44.02265 120 0 255
3.9534843 -1.3728776 44.02265 120 0 255
4.9972887 -6.703785 51.990707 120 0 255
3.6401231 8.842379 41.785057 120 0 255
3.7054746 7.010636 42.19459 120 0 255
5.020368 -6.8691535 51.98197 120 0 255
3.8841374 -0.72739667 43.168724 120 0 255
3.8841374 -0.72739667 43.168724 120 0 255
2.7390091 0.7730724 34.041515 120 0 255
3.9590757 -0.857763 43.02405 120 0 255
4.0429425 -0.5210061 43.359093 120 0 255
4.0447874 -0.34501937 43.31385 120 0 255
4.207663 -2.176493 44.492325 120 0 255
4.012732 -0.28493762 43.04137 120 0 255
4.0184755 -0.7467525 42.871574 120 0 255
4.1268897 1.4818443 43.450325 120 0 255
4.031054 2.9057117 42.707493 120 0 255
4.1296334 -0.46972927 43.278706 120 0 255
3.8271334 8.265487 41.159443 120 0 255
3.8271334 8.265487 41.159443 120 0 255
4.158088 -0.6027874 43.024166 120 0 255
4.9732494 -6.0099244 48.799313 120 0 255
4.380887 -2.39841 44.377537 120 0 255
4.4094315 -2.540866 44.522747 120 0 255
4.154596 -0.017081857 42.665585 120 0 255
4.209578 -0.62527287 42.9831 120 0 255
4.1925907 -0.8436246 42.50616 120 0 255
4.217304 0.6483464 42.734478 120 0 255
4.2652025 -0.6424797 42.872314 120 0 255
4.2652025 -0.6424797 42.872314 120 0 255
3.9273953 9.075595 40.70393 120 0 255
4.1186814 6.4478354 41.714508 120 0 255
4.2470503 -0.09383752 42.633633 120 0 255
4.228111 -0.9102844 42.41205 120 0 255
4.2773304 -0.7409771 42.666225 120 0 255
4.031777 8.471828 41.072212 120 0 255
5.110753 -6.1627183 48.365036 120 0 255
4.3018494 0.097728305 42.647625 120 0 255
4.155097 3.1455183 41.63745 120 0 255
4.70126 -3.0796435 44.858135 120 0 255
4.3719964 -0.026587956 42.509827 120 0 255
4.341997 -1.0811875 42.072376 120 0 255
4.154344 8.216375 41.019535 120 0 255
4.4132094 -0.6948141 42.574406 120 0 255
4.387169 0.578917 42.3929 120 0 255
4.365651 -0.94279283 42.138958 120 0 255
4.355474 -1.4221997 41.968285 120 0 255
4.3681893 -1.3232148 42.018524 120 0 255
4.3841844 1.4793543 42.142097 120 0 255
4.3886065 1.3228112 42.153866 120 0 255
4.390471 -1.0134778 42.066998 120 0 255
4.31865 3.9943812 41.625393 120 0 255
5.3130383 -6.208178 48.114628 120 0 255
4.42892 -1.0391806 42.07025 120 0 255
4.5062847 -0.7422508 42.40036 120 0 255
4.489597 0.13671121 42.29625 120 0 255
4.8797183 -3.2611427 44.7182 120 0 255
5.3981814 -6.263087 47.917732 120 0 255
4.9425654 -3.382058 44.773136 120 0 255
4.4206514 4.169712 41.382126 120 0 255
4.580499 -0.28042853 42.07552 120 0 255
4.6011252 -0.6795652 42.201122 120 0 255
4.571236 0.20807399 41.99889 120 0 255
4.571236 0.20807399 41.99889 120 0 255
4.6142397 -0.43495178 42.136868 120 0 255
4.6239347 0.23246066 42.08527 120 0 255
4.5516725 3.1476796 41.195854 120 0 255
4.6239867 2.4097993 41.54361 120 0 255
4.515204 6.017109 40.83026 120 0 255
4.515204 6.017109 40.83026 120 0 255
5.5775394 -6.3836403 47.561703 120 0 255
4.7503014 1.4452592 42.193382 120 0 255
4.4569016 7.5846567 40.38673 120 0 255
4.5343013 5.7181005 40.773346 120 0 255
5.628162 -5.9213066 47.733387 120 0 255
5.6101503 -6.3102093 47.395077 120 0 255
4.746833 2.4736266 41.803265 120 0 255
4.734081 2.8607333 41.334705 120 0 255
4.748636 2.6532888 41.12659 120 0 255
5.273109 -3.315899 44.3517 120 0 255
4.766987 2.7104044 41.08342 120 0 255
4.825378 2.7578764 41.23141 120 0 255
5.8723044 -7.873437 47.62691 120 0 255
5.8338704 -6.7417536 47.283318 120 0 255
4.842452 2.8519187 41.148476 120 0 255
5.9407763 -8.052653 47.72157 120 0 255
5.944546 -7.9736986 47.74067 120 0 255
5.002975 1.1480689 41.94601 120 0 255
4.999072 1.7275709 41.775 120 0 255
5.945588 -7.4844437 47.5367 120 0 255
5.978235 -7.932138 47.68647 120 0 255
5.8165565 -6.0838885 46.662716 120 0 255
4.9414062 2.9580667 41.308643 120 0 255
4.93313 2.7473226 41.21698 120 0 255
5.8771896 -6.3681684 46.923397 120 0 255
5.1583676 -0.372748 42.49935 120 0 255
4.7714686 7.1657324 40.143127 120 0 255
4.9821873 2.6793442 41.288033 120 0 255
6.0549545 -7.6344976 47.646687 120 0 255
6.0553727 -7.770491 47.60784 120 0 255
6.061488 -7.116268 47.478027 120 0 255
6.0200853 -6.477796 47.114334 120 0 255
5.0766096 2.9510434 41.43929 120 0 255
5.0766096 2.9510434 41.43929 120 0 255
5.016019 5.158251 40.938965 120 0 255
5.1489196 2.4729798 41.636604 120 0 255
5.273962 0.6583019 42.31503 120 0 255
5.241193 1.1393254 42.104534 120 0 255
6.1119385 -6.655894 47.285164 120 0 255
5.0258307 5.725801 40.853176 120 0 255
6.183054 -6.652361 47.339638 120 0 255
5.3341365 1.3781117 42.222324 120 0 255
5.308377 1.8895271 41.97423 120 0 255
5.4295745 -0.3184525 42.660072 120 0 255
5.2116046 3.0657587 41.404 120 0 255
5.434438 -1.1236223 42.586502 120 0 255
6.2410364 -6.44046 47.236694 120 0 255
6.257816 -6.3399825 47.219757 120 0 255
5.5437565 -0.5443988 42.754784 120 0 255
5.280798 4.607716 41.186058 120 0 255
5.344305 3.4716616 41.501858 120 0 255
5.169831 6.792096 40.503727 120 0 255
5.2455907 5.700701 40.913692 120 0 255
5.4121623 2.4450607 41.689133 120 0 255
5.48611 1.6731642 42.042706 120 0 255
5.3283386 5.421785 40.99146 120 0 255
5.312267 5.944967 40.795357 120 0 255
5.312267 5.944967 40.795357 120 0 255
5.6807184 -0.3300274 42.822144 120 0 255
5.668857 0.010462396 42.670033 120 0 255
5.55933 1.334934 42.00302 120 0 255
5.577245 2.7187867 41.879692 120 0 255
5.4464984 5.304609 41.108982 120 0 255
5.4464984 5.304609 41.108982 120 0 255
5.5615015 4.3256655 41.45528 120 0 255
5.544652 4.6947856 41.308983 120 0 255
5.593612 4.617017 41.43278 120 0 255
5.409232 7.4033327 40.303604 120 0 255
5.409232 7.4033327 40.303604 120 0 255
5.9141107 -1.211065 42.86961 120 0 255
6.1911135 -2.9397743 44.374176 120 0 255
5.911972 0.02607774 42.76909 120 0 255
6.1435604 -2.71173 43.98524 120 0 255
5.9260197 0.06839753 42.79206 120 0 255
5.899441 0.66973436 42.625664 120 0 255
6.1687245 -2.5581257 43.95081 120 0 255
5.9504485 0.44382533 42.764385 120 0 255
6.167954 -2.352368 43.928295 120 0 255
5.904037 1.1824738 42.437992 120 0 255
6.001988 -0.25732136 42.829723 120 0 255
5.861558 3.275603 42.004444 120 0 255
6.2085443 -2.3848374 43.80068 120 0 255
6.2075453 -2.8348722 43.751263 120 0 255
6.206566 -2.871946 43.733307 120 0 255
5.9357533 2.069938 42.280262 120 0 255
5.9528613 1.7424303 42.319992 120 0 255
5.9528613 1.7424303 42.319992 120 0 255
6.2352037 -2.5238743 43.75745 120 0 255
6.2099175 -1.9003369 43.62183 120 0 255
6.2442822 -2.3482356 43.745426 120 0 255
5.9440665 2.6014957 42.137123 120 0 255
6.305759 -3.0260296 43.80824 120 0 255
6.1874504 0.10186264 42.914005 120 0 255
5.937713 4.5668917 41.566563 120 0 255
6.1113048 1.4970665 42.444977 120 0 255
6.338172 -1.8810767 43.603683 120 0 255
6.2687774 -0.7112644 43.241096 120 0 255
