ply
format ascii 1.0
element vertex 47
property float x
property float y
property float z
property int red
property int blue
property int green
end_header
6.611631 0.28679764 3.677746 120 0 255
6.7534623 0.35156414 3.5008402 120 0 255
8.444136 0.61236227 2.6325545 120 0 255
6.414593 0.29972726 3.8871365 120 0 255
6.1816688 0.08778154 4.3893156 120 0 255
7.2554374 0.44843546 3.2343507 120 0 255
7.2820783 0.4513894 3.2202985 120 0 255
6.1861205 0.10223931 4.3758216 120 0 255
6.8289647 0.33034408 3.558208 120 0 255
6.1831737 0.09240691 4.385778 120 0 255
6.4770555 0.26733017 3.7655373 120 0 255
6.651596 0.2779081 3.6013205 120 0 255
6.1178784 0.16525817 4.099135 120 0 255
6.462909 0.24254146 3.8337471 120 0 255
6.4465704 0.24255511 3.8363962 120 0 255
6.4211493 0.23396595 3.857117 120 0 255
8.066503 0.546945 2.8611338 120 0 255
6.5822797 0.27856082 3.7196124 120 0 255
6.158103 0.3671359 4.3304625 120 0 255
6.40847 0.29023448 3.8999798 120 0 255
7.4140277 0.4860987 3.1182904 120 0 255
0.90219325 -1.8794684 9.957175 120 0 255
7.0640697 0.39121753 3.3836522 120 0 255
8.446379 0.73721474 2.8324854 120 0 255
6.5250015 0.2707323 3.7537222 120 0 255
5.9444876 0.3040038 4.652827 120 0 255
6.561681 0.24580626 3.8021 120 0 255
6.542031 0.24367765 3.7518513 120 0 255
6.6282396 0.24589929 3.5520887 120 0 255
6.5598354 0.24995376 3.8067412 120 0 255
6.560475 0.24349724 3.7984123 120 0 255
6.6110983 0.23961034 3.725353 120 0 255
8.154427 0.6307413 2.7196424 120 0 255
6.568972 0.27642196 3.7417128 120 0 255
6.838075 0.33034334 3.5534458 120 0 255
3.1228137 -0.8249654 8.457395 120 0 255
6.588746 0.25404233 3.7448115 120 0 255
6.290515 0.27849337 3.8995473 120 0 255
6.591105 0.26021764 3.7458317 120 0 255
6.697473 0.2582657 3.4438977 120 0 255
7.4164343 0.12729095 3.4808059 120 0 255
3.05017 -0.8479537 7.530124 120 0 255
6.7149353 0.3028919 3.6400816 120 0 255
7.5942025 0.20364438 3.419736 120 0 255
-0.46327314 -2.4797544 11.267512 120 0 255
6.5703607 0.25439012 3.7843723 120 0 255
6.514763 0.25852233 3.7872002 120 0 255
