ply
format ascii 1.0
element vertex 267
property float x
property float y
property float z
property int red
property int blue
property int green
end_header
-3.2397969 -0.2814475 8.87649 120 0 255
0.16894156 0.5889153 2.905426 120 0 255
0.3690974 0.61378944 3.0729575 120 0 255
-0.9283185 0.0037533764 2.1183796 120 0 255
-0.87639487 0.34190637 2.0627327 120 0 255
-0.85242355 0.43608478 2.0547774 120 0 255
-0.8488063 0.2979837 2.0880098 120 0 255
-0.847491 0.30037317 2.0912857 120 0 255
-0.86235034 -0.02582139 2.1670477 120 0 255
-0.7211272 0.21903911 2.1886618 120 0 255
-0.71606797 0.16810507 2.2023969 120 0 255
-0.7277815 -0.12303564 2.2684445 120 0 255
-0.67190045 0.42547143 2.1655147 120 0 255
-0.6774774 0.36942276 2.1777678 120 0 255
-0.6951263 0.17653708 2.2260017 120 0 255
-0.66862243 0.3798345 2.1825855 120 0 255
-0.6771759 0.2709282 2.2045689 120 0 255
-0.9606262 -0.53395045 2.7935033 120 0 255
-0.93637997 -0.5240011 2.8035257 120 0 255
-0.69946027 0.5401166 2.527718 120 0 255
-0.7199988 0.016117685 2.6440985 120 0 255
-0.84831345 -0.5586631 2.9175694 120 0 255
-0.58415407 0.34627593 2.6441357 120 0 255
-0.5835441 0.31903365 2.653912 120 0 255
-0.56035525 0.49467742 2.6242814 120 0 255
-0.5696926 0.29855013 2.6655846 120 0 255
-0.5670133 0.28110954 2.6709688 120 0 255
-0.5670133 0.28110954 2.6709688 120 0 255
-0.5758683 -0.01173059 2.7379937 120 0 255
-0.5509564 0.29508188 2.674973 120 0 255
-0.5556341 0.19855946 2.696412 120 0 255
-0.55076545 -0.09149718 2.7780423 120 0 255
-0.7003199 -0.56306916 3.1087773 120 0 255
-0.49869832 0.64210945 2.6208246 120 0 255
-0.50168097 -0.21043567 2.8263917 120 0 255
-0.4461964 0.26366106 2.7370455 120 0 255
-0.44828263 0.0117850015 2.791755 120 0 255
-0.42954412 0.23944786 2.762097 120 0 255
-0.41529265 0.33440778 2.7471044 120 0 255
-0.41877216 0.20933184 2.7765775 120 0 255
-0.38911828 0.26931956 2.7686167 120 0 255
-3.2397969 -0.2814475 8.87649 120 0 255
-0.38291752 0.30891332 2.7660768 120 0 255
-0.3783545 0.29129726 2.7762077 120 0 255
-0.49559334 -0.4901344 3.190171 120 0 255
-0.32391852 -0.1848514 2.9228058 120 0 255
-0.39131528 -0.47189426 3.2419922 120 0 255
-0.2922221 -0.35995388 3.1873062 120 0 255
-0.27972454 -0.355603 3.1921496 120 0 255
-0.27859133 -0.43412966 3.203631 120 0 255
-0.2787926 -0.39940256 3.2042496 120 0 255
-0.2787926 -0.39940256 3.2042496 120 0 255
-0.28093404 -0.5287232 3.2334297 120 0 255
-0.15179239 0.054788098 2.8716936 120 0 255
-0.07748201 0.343114 2.825305 120 0 255
-0.097573765 -0.07422231 2.9371126 120 0 255
-0.083727285 -0.09300569 2.9484549 120 0 255
-0.062490806 0.25199527 2.872739 120 0 255
-0.06864524 -0.22445822 2.9785192 120 0 255
-0.15497994 -0.776578 3.4464345 120 0 255
-0.022288198 0.12369504 2.946386 120 0 255
-0.14640257 -0.7660668 3.447632 120 0 255
-7.4185953 1.5877017 25.510544 120 0 255
-0.004274528 0.42755094 2.8808692 120 0 255
-0.008889129 0.05234777 2.9426706 120 0 255
-0.00241973 -0.22009695 3.0126984 120 0 255
0.00456139 0.092569314 2.9550416 120 0 255
0.040262472 -0.04313531 2.9697785 120 0 255
0.060251933 0.3272159 2.8952749 120 0 255
0.06707968 -0.069357865 3.0166464 120 0 255
0.052583642 -0.3940222 3.3615546 120 0 255
0.058104947 -0.3949575 3.3623347 120 0 255
0.08007538 -0.41973722 3.4378738 120 0 255
0.08430283 -0.42088106 3.4419773 120 0 255
0.24336743 -0.16447915 3.1885598 120 0 255
0.2604822 0.099864185 3.143381 120 0 255
0.27025437 0.12989281 3.1485374 120 0 255
0.28026584 0.31342137 3.0962934 120 0 255
0.2805205 0.09898403 3.148434 120 0 255
0.29878053 0.30843458 3.1097534 120 0 255
0.30378768 0.066637784 3.1616209 120 0 255
0.30415723 0.11529092 3.1586454 120 0 255
0.30604747 0.14540981 3.1532116 120 0 255
0.30604747 0.14540981 3.1532116 120 0 255
0.3120788 0.084218 3.168908 120 0 255
0.32581088 0.103111416 3.172417 120 0 255
0.33919096 0.041177236 3.1929204 120 0 255
0.3481441 0.5516738 3.0796468 120 0 255
0.2959426 -0.44751415 3.545976 120 0 255
0.3496059 0.07952037 3.1883078 120 0 255
0.37085092 0.5863486 3.079059 120 0 255
0.4067279 0.64624894 3.0764263 120 0 255
0.4057379 0.015552961 3.2044995 120 0 255
0.41490072 0.28882185 3.157537 120 0 255
0.41842997 0.10881489 3.2079113 120 0 255
0.42438617 0.014170747 3.2159839 120 0 255
0.4286606 0.682803 3.0731275 120 0 255
0.42789215 0.70347315 3.0790017 120 0 255
0.65037507 0.31460696 1.8842063 120 0 255
0.46340454 0.11094298 3.222657 120 0 255
0.467486 0.3251341 3.1733632 120 0 255
0.47135693 -0.07272377 3.27456 120 0 255
0.4740624 -0.046356235 3.2683854 120 0 255
0.4457988 -0.47773692 3.6165514 120 0 255
0.44535622 -0.4955709 3.6244342 120 0 255
0.44800147 -0.5396064 3.6332548 120 0 255
0.45403203 -0.3906568 3.5711672 120 0 255
0.45227015 -0.4464203 3.6094084 120 0 255
0.49283165 0.117563486 3.2352197 120 0 255
0.47785124 -0.20050862 3.4108605 120 0 255
0.45642415 -0.4861918 3.6236904 120 0 255
0.49554282 0.16032602 3.2286808 120 0 255
0.4808861 -0.17451651 3.4020298 120 0 255
0.49501652 -0.05532698 3.286666 120 0 255
0.50462997 0.046119887 3.2554395 120 0 255
0.5097876 0.2873879 3.206073 120 0 255
0.5100212 0.34698698 3.1914606 120 0 255
0.5100212 0.34698698 3.1914606 120 0 255
0.51146257 0.42059085 3.1770802 120 0 255
0.51352584 0.5933852 3.1369603 120 0 255
0.5148665 0.36732158 3.186734 120 0 255
0.5161988 0.27247694 3.2131786 120 0 255
0.51688075 0.11653137 3.2480817 120 0 255
0.50980264 -0.19126281 3.4172995 120 0 255
0.52313787 0.47356257 3.1732364 120 0 255
0.5241005 0.64372617 3.1329281 120 0 255
0.52657473 0.19316696 3.2351842 120 0 255
0.5283005 0.14456764 3.2453244 120 0 255
0.5283005 0.14456764 3.2453244 120 0 255
0.52932477 0.108762704 3.2524157 120 0 255
0.52932477 0.108762704 3.2524157 120 0 255
0.5295462 0.17973797 3.237222 120 0 255
0.5175915 -0.17420293 3.4160638 120 0 255
0.5321034 0.2736649 3.2168062 120 0 255
0.53382915 0.35062847 3.2021544 120 0 255
0.54146284 0.39509603 3.1954794 120 0 255
0.5431147 0.14274488 3.2529433 120 0 255
0.54376376 0.382837 3.1933947 120 0 255
0.54413974 0.4624694 3.1816015 120 0 255
0.54624534 0.06641037 3.2674146 120 0 255
0.54580534 0.40088314 3.1962101 120 0 255
0.5503096 0.25401673 3.2316196 120 0 255
0.5525235 0.11965326 3.2599564 120 0 255
0.5537331 0.42307046 3.1947236 120 0 255
0.5537331 0.42307046 3.1947236 120 0 255
0.55425787 0.6008009 3.1528301 120 0 255
0.55452365 0.632451 3.1458828 120 0 255
0.54726434 -0.28005567 3.5141096 120 0 255
0.5677928 0.39119273 3.1994133 120 0 255
0.5677928 0.39119273 3.1994133 120 0 255
0.5826469 0.37852857 3.2055225 120 0 255
0.5888942 0.0030113778 3.278671 120 0 255
0.6162738 -0.12793358 3.3358755 120 0 255
0.6463987 -0.46891192 3.598294 120 0 255
0.6753553 -0.3119172 3.5831358 120 0 255
0.87642026 0.063444614 3.0382512 120 0 255
0.87798417 0.32900697 2.9862678 120 0 255
0.88549745 0.16036679 3.021494 120 0 255
0.8796633 0.46289214 2.9584293 120 0 255
0.8888284 0.18025972 3.018423 120 0 255
0.8958751 -0.22812098 3.1691718 120 0 255
0.8923614 0.057536103 3.0452313 120 0 255
0.8909907 0.22738501 3.0107713 120 0 255
0.89385897 0.1782645 3.022135 120 0 255
0.890388 0.40296617 2.9731932 120 0 255
0.89289826 0.32663995 2.989043 120 0 255
0.89552206 0.24838312 2.9972541 120 0 255
0.90617126 -0.31486067 3.2299697 120 0 255
0.89523375 0.51625913 2.9529457 120 0 255
0.9074535 -0.0056879316 3.064731 120 0 255
0.90646654 0.20613265 3.0203755 120 0 255
0.91069794 0.19746953 3.0243104 120 0 255
0.92350316 -0.3548587 3.2617533 120 0 255
0.9221218 0.073288165 3.05472 120 0 255
0.91980475 0.21661569 3.0262113 120 0 255
0.9212909 0.18961884 3.028819 120 0 255
0.92203254 0.28108293 3.0161295 120 0 255
0.92144376 0.34432393 3.0003288 120 0 255
0.94599086 -0.5611156 3.3661888 120 0 255
0.93194366 0.37091565 2.9986339 120 0 255
0.95222884 -0.36724964 2.648305 120 0 255
0.944296 0.020792574 3.0729547 120 0 255
0.9387004 0.28828198 3.017856 120 0 255
0.9387004 0.28828198 3.017856 120 0 255
0.94258463 0.16587414 3.0424423 120 0 255
0.9395708 0.29196498 3.0174904 120 0 255
0.94529223 0.07912652 3.0653799 120 0 255
0.94461775 0.10884493 3.0545404 120 0 255
0.9405973 0.27020168 3.0220659 120 0 255
0.9461403 0.119507246 3.0559385 120 0 255
0.9463332 0.12258504 3.0566452 120 0 255
0.9396563 0.38950375 2.9980674 120 0 255
0.93953687 0.39659885 2.995997 120 0 255
0.9503232 -0.0069384533 3.081851 120 0 255
0.94670004 0.13727582 3.0519671 120 0 255
0.9401736 0.40711024 2.9950156 120 0 255
0.94666994 0.17752634 3.0441818 120 0 255
0.9409147 0.47722888 2.9791613 120 0 255
0.9492532 0.1532412 3.0509126 120 0 255
0.94799805 0.2962899 3.0196629 120 0 255
0.9537073 0.072695844 3.0677915 120 0 255
0.9473316 0.41780293 2.9931502 120 0 255
0.9558808 0.11965853 3.0582342 120 0 255
0.94882876 0.4413901 2.9895763 120 0 255
0.9563893 0.1637316 3.0501304 120 0 255
0.94893837 0.46208522 2.9876847 120 0 255
0.94893837 0.46208522 2.9876847 120 0 255
0.9587405 0.08916847 3.0632453 120 0 255
0.95655847 0.19265303 3.045175 120 0 255
0.95984167 0.17707242 3.0463457 120 0 255
0.95984167 0.17707242 3.0463457 120 0 255
0.96447366 0.02639851 3.0778959 120 0 255
0.9595834 0.21840554 3.0363483 120 0 255
0.9571604 0.3241899 3.0176036 120 0 255
0.96730494 0.15628673 3.0532444 120 0 255
0.9609852 0.39720958 3.0028615 120 0 255
0.96798104 0.22776808 3.0418835 120 0 255
0.9721301 0.14561915 3.0570838 120 0 255
1.0002552 0.08336048 3.0953565 120 0 255
1.0059551 -0.3299589 3.5832067 120 0 255
1.0171801 -0.21735382 3.1394877 120 0 255
1.0254897 -0.21376035 3.1420515 120 0 255
1.0085485 0.055746213 1.7566762 120 0 255
1.0365425 -0.32841074 3.2870274 120 0 255
1.0096928 0.66760653 2.962599 120 0 255
1.0442241 -0.30180147 3.271102 120 0 255
1.0154098 0.64873004 2.9798448 120 0 255
1.0292416 0.62941414 2.9799154 120 0 255
1.0491667 0.048597697 3.099467 120 0 255
1.0604402 -0.15538883 3.1494222 120 0 255
1.0827674 0.058568988 3.1100764 120 0 255
1.0820698 0.09175311 3.1073256 120 0 255
1.0820698 0.09175311 3.1073256 120 0 255
1.0985497 0.12835956 3.1083639 120 0 255
1.1047999 0.03579091 3.126839 120 0 255
1.0991945 0.22495745 3.0917952 120 0 255
1.1101689 0.080937825 3.1209066 120 0 255
1.1105299 0.1437431 3.1104436 120 0 255
1.1213098 -0.05448579 3.1396205 120 0 255
1.1018025 0.5370379 3.0329514 120 0 255
1.1119176 0.25930318 3.0799758 120 0 255
1.1136155 0.2313374 3.0966704 120 0 255
1.1176337 0.12109839 3.1168778 120 0 255
1.11785 0.16109702 3.1095052 120 0 255
1.11785 0.16109702 3.1095052 120 0 255
1.1186965 0.15778385 3.110997 120 0 255
1.1190039 0.20046046 3.1026702 120 0 255
1.112067 0.42656085 3.0602057 120 0 255
1.1191745 0.2164476 3.0956147 120 0 255
1.1139911 0.42979848 3.0596926 120 0 255
1.1200672 0.3338226 3.0799158 120 0 255
1.1138707 0.58426493 3.0265305 120 0 255
1.1438986 -0.14338861 3.2090948 120 0 255
1.1259121 0.43684635 3.0622308 120 0 255
1.1460282 0.092974946 3.1321845 120 0 255
1.1390193 0.3305246 3.0850487 120 0 255
1.16156 0.010650175 3.1526635 120 0 255
1.1610324 0.061993226 3.1432643 120 0 255
1.1642206 0.0059743337 3.1484613 120 0 255
1.162334 0.1191311 3.135548 120 0 255
1.1622506 0.1842652 3.1214988 120 0 255
1.163597 0.20295906 3.1187856 120 0 255
1.1633801 0.22875085 3.113985 120 0 255
1.1717447 0.10228073 3.1366541 120 0 255
1.1650748 0.40137976 3.083925 120 0 255
1.1610864 0.58582294 3.0495198 120 0 255
1.1780851 0.1264199 3.1360705 120 0 255
